ply
format ascii 1.0
element vertex 679
property float x
property float y
property float z
property float nx
property float ny
property float nz
property uchar diffuse_red
property uchar diffuse_green
property uchar diffuse_blue
end_header
-0.123683 -0.323143 -0.060479 0.158326 -0.138759 -0.977588 194 175 191
-0.103371 -0.312007 -0.0551595 0.124427 -0.154302 -0.980157 193 181 196
-0.103537 -0.337103 -0.0533131 0.18081 -0.0976944 -0.978654 195 173 190
-0.0812014 -0.32679 -0.0481308 0.193118 -0.115502 -0.974354 193 172 190
-0.0795291 -0.296262 -0.0546552 0.267256 -0.022315 -0.963367 134 133 175
-0.0593276 -0.307541 -0.0499067 0.219777 0.00967629 -0.975502 174 167 194
0.00413813 -0.295161 -0.0350778 0.260273 -0.0281634 -0.965124 73 84 153
0.0693843 -0.283718 -0.0171082 0.185499 -0.0525554 -0.981238 12 37 137
0.0901437 -0.269953 -0.0159403 0.218159 -0.0201333 -0.975705 19 39 130
0.110617 -0.257957 -0.0121836 0.204096 -0.0449673 -0.977917 178 175 201
0.131331 -0.246116 -0.00963136 0.121289 -0.0789408 -0.989473 100 104 160
0.151836 -0.250871 -0.00502372 0.16921 -0.0745724 -0.982755 65 79 160
0.152039 -0.259202 -0.00486353 0.209219 -0.0886812 -0.973839 63 77 159
0.152598 -0.225272 -0.00910738 0.142575 -0.0620701 -0.987836 50 66 152
0.174456 -0.232711 -0.013158 -0.380969 -0.071546 -0.921815 11 36 134
0.17338 -0.240553 -0.0062641 0.082219 -0.124145 -0.988852 12 36 136
0.213405 -0.232729 0.00867602 0.277153 -0.0622785 -0.958805 14 37 137
0.252845 -0.231416 0.0193558 0.262817 -0.0538795 -0.96334 182 180 203
0.233446 -0.219721 0.0130436 0.277902 -0.0604749 -0.958704 47 61 139
0.252548 -0.231554 0.0192688 0.262844 -0.0542539 -0.963312 181 179 203
0.253454 -0.207656 0.0182328 0.280785 -0.0525976 -0.958329 184 181 204
0.272926 -0.219585 0.0247102 0.276385 -0.0474147 -0.959877 81 88 153
0.27266 -0.219735 0.0246241 0.275556 -0.047978 -0.960087 83 90 154
0.29213 -0.206791 0.0287611 0.275384 -0.0463488 -0.960217 49 69 158
0.312259 -0.219955 0.0362945 0.274735 -0.0321049 -0.960984 14 37 136
0.334313 -0.213119 0.0415779 0.235927 -0.0802692 -0.96845 8 35 135
0.316488 -0.203146 0.0366463 0.294403 -0.0191827 -0.955489 13 36 137
0.31204 -0.196068 0.0346828 0.258063 -0.020477 -0.965911 13 36 137
0.331999 -0.184828 0.0360932 0.324009 0.0138849 -0.945952 12 36 137
0.353154 -0.203632 0.0495206 -0.0443708 -0.0711655 -0.996478 10 36 135
0.369754 -0.188318 0.0476816 0.179789 -0.0563122 -0.982092 28 47 131
0.389901 -0.175777 0.0482294 0.23208 -0.0650181 -0.970521 176 175 198
0.428877 -0.187974 0.0557921 0.253551 -0.100016 -0.962138 28 47 134
0.448703 -0.175787 0.0578032 0.175824 -0.027309 -0.984043 16 36 130
0.481721 -0.154308 0.0655654 0.215349 0.141556 -0.966223 65 75 145
0.500956 -0.144193 0.0719914 0.212815 -0.0159954 -0.976961 171 158 184
0.500838 -0.169028 0.075095 0.200184 -0.129695 -0.971136 25 43 130
0.520861 -0.132734 0.0764836 0.22589 -0.0574061 -0.972459 168 102 122
0.520625 -0.155984 0.0774615 0.250474 -0.0282214 -0.967712 126 127 171
0.540444 -0.14423 0.0811043 0.218708 -0.0357835 -0.975134 180 151 172
0.560663 -0.132456 0.0853662 0.231902 -0.072798 -0.970012 158 63 86
0.580535 -0.144755 0.0918895 0.243967 -0.059084 -0.967982 164 91 112
0.600732 -0.132604 0.0960437 0.234545 -0.104595 -0.966462 170 56 85
0.6285 -0.137077 0.102815 0.221263 -0.11012 -0.968977 180 64 98
0.645134 -0.103221 0.106426 0.389081 0.0753236 -0.918119 184 122 135
0.645077 -0.122254 0.104306 0.285405 -0.0239829 -0.958108 179 63 90
0.659698 -0.119154 0.106048 0.301256 0.217817 -0.928332 174 59 85
0.70915 -0.10792 0.117724 0.152609 0.251029 -0.955874 173 58 81
0.740928 -0.0944404 0.128913 0.135115 0.154668 -0.978683 172 74 87
0.754763 -0.101837 0.130099 0.26296 0.0766104 -0.96176 173 44 60
-0.719378 -0.478947 -0.161166 0.235634 -0.134686 -0.962464 144 21 35
-0.67343 -0.473149 -0.156183 0.135851 -0.187035 -0.972915 146 20 35
-0.653848 -0.473983 -0.152114 0.218367 -0.13156 -0.966958 143 20 35
-0.651921 -0.443864 -0.158456 0.152201 -0.186872 -0.970523 171 89 109
-0.60739 -0.43435 -0.153196 0.217159 -0.0736614 -0.973353 180 107 120
-0.58514 -0.448687 -0.146212 0.185207 -0.135972 -0.973247 179 104 121
-0.584706 -0.419503 -0.150349 0.219971 -0.0768378 -0.972476 199 138 148
-0.560634 -0.436173 -0.142263 0.228957 -0.127893 -0.964998 188 116 133
-0.536808 -0.422327 -0.138082 0.204587 -0.137888 -0.969087 184 133 144
-0.516221 -0.403618 -0.135982 0.189848 -0.142662 -0.971393 139 151 129
-0.435923 -0.380258 -0.124851 0.130183 -0.127718 -0.983229 129 89 99
-0.415457 -0.369101 -0.11978 0.166901 -0.102399 -0.980641 181 144 162
-0.415044 -0.393932 -0.119513 0.196497 -0.172949 -0.965132 171 120 136
-0.393538 -0.38331 -0.113161 0.244431 -0.0975184 -0.96475 183 144 162
-0.312687 -0.342914 -0.100505 0.251447 -0.0625105 -0.96585 186 177 196
-0.286449 -0.352894 -0.094405 0.214594 -0.0186884 -0.976524 108 107 157
-0.28805 -0.350472 -0.0965286 0.209671 -0.0231728 -0.977498 112 111 161
-0.290412 -0.329044 -0.0965727 0.285778 -0.122358 -0.950452 153 146 179
-0.285501 -0.327666 -0.0961858 0.220065 -0.0853038 -0.971748 168 161 190
-0.248137 -0.328081 -0.0874566 0.282507 -0.0308547 -0.958769 186 178 196
-0.228163 -0.335696 -0.0842023 0.297479 -0.0669545 -0.952378 170 161 187
-0.207939 -0.318435 -0.082557 0.168049 -0.0676233 -0.983457 196 183 196
-0.186331 -0.311505 -0.0747515 0.164684 -0.167233 -0.972066 194 181 195
-0.206216 -0.299405 -0.0807797 0.16823 -0.156471 -0.97325 194 184 197
-0.164726 -0.297318 -0.0724526 0.262585 -0.0583735 -0.963142 193 184 202
-0.144461 -0.311525 -0.0643528 0.15973 -0.122354 -0.979549 193 180 194
-0.122921 -0.297521 -0.0635137 0.199759 -0.0404618 -0.979009 194 186 200
-0.101072 -0.286539 -0.0578968 0.285231 -0.0848255 -0.954698 112 113 165
-0.0589516 -0.282955 -0.0514703 0.238693 -0.025817 -0.970752 81 87 159
-0.0399047 -0.256978 -0.0467767 0.250764 -0.0714844 -0.965406 141 139 176
-0.0258096 -0.252348 -0.0440786 0.19804 -0.0467519 -0.979079 193 185 201
-0.00551978 -0.263483 -0.0392043 0.25147 -0.0254572 -0.967531 77 86 147
0.0711396 -0.229714 -0.0250603 0.29531 -0.0641817 -0.953243 12 37 136
0.0916111 -0.239949 -0.0208904 0.306691 -0.095001 -0.947056 31 49 134
0.0903871 -0.245786 -0.0176412 0.261116 -0.0561025 -0.963675 24 44 131
0.0904372 -0.222372 -0.0179642 0.182035 -0.0583743 -0.981558 29 47 134
0.0911984 -0.221694 -0.01939 0.222621 -0.0628847 -0.972875 32 49 135
0.110989 -0.233598 -0.0141031 0.212697 -0.0622308 -0.975134 181 179 202
0.111272 -0.209856 -0.0154577 0.166017 -0.0640595 -0.98404 184 182 204
0.152531 -0.20254 -0.00863721 0.236564 -0.0917642 -0.967272 41 60 150
0.172467 -0.216361 -0.00169107 0.298244 -0.0953531 -0.949715 12 37 139
0.17268 -0.215318 -0.00133132 0.302027 -0.0935862 -0.948694 12 37 139
0.173527 -0.189527 -0.00598247 0.134959 -0.037829 -0.990129 11 37 138
0.213781 -0.208831 0.00751081 0.276772 -0.0708755 -0.958318 14 37 138
0.214256 -0.208586 0.00726534 0.280243 -0.069582 -0.957404 15 37 137
0.215837 -0.211626 0.00931416 0.225075 -0.0654268 -0.972143 14 37 137
0.233971 -0.196007 0.0118948 0.285437 -0.0576196 -0.956664 55 68 143
0.214555 -0.185174 0.00624415 0.29805 -0.0515111 -0.95316 15 37 137
0.233707 -0.195876 0.0118553 0.284555 -0.0575587 -0.95693 54 67 143
0.216052 -0.187643 0.00784372 0.267246 -0.0570085 -0.961941 16 38 137
0.234547 -0.172427 0.0107979 0.308332 -0.0387269 -0.950491 76 86 152
0.234072 -0.172098 0.010342 0.322052 -0.0385536 -0.945937 72 83 150
0.272994 -0.19587 0.0235715 0.284418 -0.0371279 -0.957982 70 79 149
0.253433 -0.183674 0.0168375 0.292811 -0.0508985 -0.954815 184 182 203
0.292252 -0.183339 0.0277623 0.267573 -0.0375865 -0.962805 34 58 152
0.273485 -0.173461 0.0235789 0.298669 -0.0183738 -0.95418 57 68 143
0.311989 -0.169731 0.0307422 0.254926 -0.0734717 -0.964165 12 37 138
0.293261 -0.16122 0.0278241 0.303848 -0.0256716 -0.952375 22 46 143
0.370233 -0.163261 0.0438154 0.127454 -0.0252811 -0.991522 32 49 131
0.370266 -0.140643 0.0437289 0.12154 -0.00342869 -0.992581 86 93 151
0.390129 -0.15092 0.0451795 0.138703 -0.0349796 -0.989717 184 173 195
0.408666 -0.140386 0.0490723 0.199447 -0.0732129 -0.97717 152 82 106
0.427215 -0.130754 0.052962 0.24211 -0.00329092 -0.970243 171 80 107
0.466465 -0.123875 0.063793 0.205924 -0.136425 -0.969012 164 79 101
0.464287 -0.145219 0.0640409 0.193987 0.108743 -0.974959 156 146 182
0.485445 -0.110585 0.0652816 0.224384 -0.132887 -0.965398 164 49 71
0.48147 -0.132196 0.0666298 0.203756 -0.0467911 -0.977903 181 140 160
0.48167 -0.132413 0.06699 0.187432 -0.143917 -0.971678 180 142 160
0.501219 -0.120707 0.070595 0.214142 -0.051533 -0.975442 160 62 83
0.505104 -0.0994001 0.0702519 0.210623 -0.0805554 -0.974243 172 90 114
0.521693 -0.108902 0.074168 0.193118 -0.141454 -0.970926 169 66 88
0.541423 -0.09729 0.078302 0.231412 -0.0556336 -0.971264 158 109 141
0.559655 -0.0852893 0.0811969 0.234869 0.00942108 -0.971981 150 135 175
0.559649 -0.107593 0.0816143 0.190965 -0.139627 -0.971615 170 73 96
0.560855 -0.109493 0.0847764 0.22496 -0.0485127 -0.97316 172 78 101
0.591492 -0.101768 0.0890049 0.176334 -0.116256 -0.977442 139 101 139
0.607337 -0.0838541 0.0877094 0.276174 0.0444617 -0.960078 121 101 144
0.590326 -0.0739479 0.0835964 0.289617 0.0513501 -0.955764 142 134 177
0.593872 -0.0739721 0.084613 0.288217 0.0584667 -0.955779 136 128 173
0.624044 -0.076738 0.0952367 0.268385 0.0736834 -0.96049 186 174 192
0.643218 -0.0715983 0.106153 0.299639 0.0657461 -0.951784 187 177 190
0.645269 -0.0844203 0.107829 0.374359 0.0712315 -0.924544 185 170 182
0.68179 -0.0660376 0.110832 0.255376 -0.0912428 -0.962526 185 177 189
0.714584 -0.0642206 0.12665 0.163546 0.0187572 -0.986357 184 178 191
0.743329 -0.0420462 0.117708 0.39948 0.105511 -0.91065 184 157 170
0.75781 -0.053938 0.126253 0.387683 0.0841275 -0.917946 182 125 136
-0.743097 -0.46491 -0.168923 0.23447 -0.133848 -0.962865 144 21 36
-0.730695 -0.45745 -0.169822 0.233381 -0.16833 -0.957704 145 24 42
-0.707982 -0.435807 -0.173132 0.21428 -0.0933012 -0.972306 172 89 107
-0.697616 -0.460003 -0.162433 0.224452 -0.131415 -0.965584 146 31 49
-0.684332 -0.424092 -0.167454 0.171798 -0.183762 -0.967841 174 99 112
-0.629495 -0.423238 -0.157216 0.234397 -0.167474 -0.957606 187 109 118
-0.606997 -0.407566 -0.155421 0.332681 -0.0134476 -0.942944 195 132 144
-0.561275 -0.406471 -0.146912 0.17065 -0.117076 -0.978352 179 120 129
-0.562263 -0.379601 -0.148716 0.169474 -0.109777 -0.979402 125 145 120
-0.561459 -0.380289 -0.148287 0.208114 -0.144687 -0.967344 124 147 121
-0.515822 -0.375488 -0.139681 0.194116 -0.0960666 -0.976263 49 127 70
-0.479034 -0.356721 -0.132568 0.233316 -0.113638 -0.965739 163 172 178
-0.480765 -0.382908 -0.130733 0.226446 -0.0742794 -0.971188 72 133 88
-0.458419 -0.370531 -0.125956 0.208671 -0.114176 -0.971298 132 129 126
-0.41397 -0.34176 -0.122371 0.158548 -0.155792 -0.974982 131 128 173
-0.369984 -0.346224 -0.112939 0.27398 -0.146916 -0.950448 192 183 197
-0.347459 -0.33517 -0.110733 0.205251 -0.0423579 -0.977793 192 182 196
-0.328737 -0.322687 -0.106778 0.19895 -0.168705 -0.965379 191 179 192
-0.30875 -0.312372 -0.10083 0.276901 -0.130402 -0.95201 187 170 186
-0.268625 -0.316587 -0.0928052 0.201364 -0.0964241 -0.974759 195 186 200
-0.289802 -0.303269 -0.0994424 0.191012 -0.11552 -0.974767 184 163 178
-0.227331 -0.283594 -0.0869378 0.254211 -0.00367038 -0.967142 194 187 200
-0.204064 -0.272869 -0.0821708 0.269915 -0.119714 -0.955414 122 119 166
-0.185374 -0.2858 -0.0781271 0.264086 -0.0255404 -0.964161 174 168 195
-0.163904 -0.271709 -0.0758828 0.270614 -0.0727021 -0.959939 102 102 160
-0.143713 -0.259954 -0.0694397 0.146438 -0.0896148 -0.985152 44 58 141
-0.122827 -0.274537 -0.0627136 0.195505 -0.121376 -0.973163 134 136 186
-0.122443 -0.248438 -0.0659412 0.200797 -0.124994 -0.971626 30 46 135
-0.100693 -0.261577 -0.060215 0.238913 -0.121216 -0.963446 52 66 151
-0.0874084 -0.233627 -0.0593774 0.244386 -0.0182323 -0.969506 185 170 194
-0.0603089 -0.244569 -0.0532332 0.307636 -0.043368 -0.950515 161 156 189
-0.0601836 -0.220251 -0.0546088 0.242961 -0.0579792 -0.968302 173 114 139
-0.0395832 -0.232539 -0.0485343 0.249022 -0.0683869 -0.96608 185 156 173
-0.00521432 -0.239429 -0.0400524 0.192563 -0.0646029 -0.979156 74 81 146
-0.0230964 -0.218142 -0.0447947 0.15117 -0.0710074 -0.985954 193 183 202
-0.00359492 -0.208983 -0.0426489 0.214293 -0.0623228 -0.97478 59 69 142
0.0164322 -0.221044 -0.0373434 0.209592 -0.064082 -0.975687 46 65 152
0.0508091 -0.215079 -0.0292305 0.231973 -0.137933 -0.962893 12 36 137
0.112345 -0.181531 -0.0163186 0.200234 -0.0588984 -0.977976 188 184 204
0.132833 -0.168809 -0.0151234 0.140543 -0.106276 -0.984354 70 80 151
0.132707 -0.194689 -0.0102591 0.250218 -0.0619567 -0.966205 87 93 153
0.179598 -0.165117 -0.00279759 0.246345 -0.0729851 -0.96643 11 38 138
0.194837 -0.172555 -0.00135 0.330018 -0.0531663 -0.942476 14 38 139
0.195208 -0.172545 -0.00146507 0.33194 -0.0513578 -0.941901 14 37 139
0.2162 -0.16322 0.00637669 0.218725 -0.0653073 -0.973599 18 41 138
0.216045 -0.163695 0.0064151 0.217811 -0.0653762 -0.973799 18 41 138
0.197552 -0.151954 0.00110945 0.212753 -0.0572401 -0.975428 14 39 140
0.254022 -0.160695 0.0161824 0.292287 -0.0493782 -0.955055 187 183 203
0.234857 -0.149352 0.0099096 0.28062 -0.0475085 -0.958643 138 141 182
0.254492 -0.138063 0.0157296 0.307862 -0.0306538 -0.950937 189 177 194
0.273648 -0.148413 0.0203032 0.284068 -0.0528897 -0.957345 86 92 153
0.28704 -0.152126 0.0237273 0.162222 -0.000705655 -0.986754 31 51 141
0.310734 -0.126699 0.0322603 0.234188 -0.0889344 -0.968115 123 125 173
0.30745 -0.139081 0.0244028 0.181248 -0.0567839 -0.981797 29 49 139
0.324436 -0.127903 0.027692 0.183435 -0.0730258 -0.980316 82 91 156
0.350338 -0.130448 0.0423673 0.203586 -0.0741635 -0.976244 144 142 182
0.370488 -0.117832 0.0432257 0.20769 -0.0291588 -0.97776 185 154 174
0.389698 -0.128831 0.0461167 0.156427 -0.00457395 -0.987679 192 167 184
0.408728 -0.118015 0.0488901 0.131128 -0.00576606 -0.991349 158 48 70
0.40954 -0.0939053 0.047038 0.159457 -0.0561209 -0.985608 173 59 83
0.42809 -0.106417 0.0509204 0.134314 -0.0387928 -0.990179 179 56 83
0.447692 -0.0886453 0.0558943 0.249496 -0.0488077 -0.967145 178 96 121
0.466882 -0.100105 0.061467 0.245515 -0.0893825 -0.965264 176 61 84
0.465919 -0.0996937 0.0609456 0.255511 -0.0981533 -0.961811 176 60 84
0.48568 -0.0877726 0.0645379 0.237934 -0.0658892 -0.969043 166 114 145
0.467221 -0.0767282 0.0593701 0.239503 -0.0548079 -0.969347 164 131 163
0.504228 -0.076348 0.0689226 0.233636 -0.0608709 -0.970417 137 128 167
0.523313 -0.0860477 0.073404 0.206323 -0.0768548 -0.975461 144 122 160
0.522669 -0.063773 0.0726291 0.203286 0.0113116 -0.979054 116 114 164
0.541409 -0.0750019 0.0774062 0.232982 0.0277655 -0.972085 100 99 159
0.559624 -0.0640981 0.0822165 0.259113 -0.00180435 -0.965846 142 141 186
0.573897 -0.0661789 0.0811059 0.2988 -0.0289737 -0.953876 99 96 149
0.592379 -0.0532042 0.0852409 0.381427 0.0664621 -0.922007 119 112 155
0.577169 -0.0460903 0.0819075 0.298709 -0.0304538 -0.953858 147 138 171
0.607057 -0.0640103 0.0889862 0.277418 0.280122 -0.919005 122 118 161
0.607905 -0.0449846 0.0932896 0.291338 0.176794 -0.940142 185 177 196
0.657649 -0.060826 0.109145 0.208876 0.159268 -0.964886 189 181 195
0.679959 -0.0458482 0.110827 0.23216 -0.102949 -0.967214 185 180 193
0.664516 -0.0357436 0.106106 0.233867 0.0344958 -0.971657 188 183 197
0.686888 -0.015915 0.105334 0.337253 0.0349707 -0.940765 185 180 193
-0.78172 -0.450416 -0.180879 0.322462 -0.145786 -0.935289 146 24 40
-0.776386 -0.424764 -0.187525 0.174618 -0.18796 -0.966529 169 85 106
-0.752978 -0.410006 -0.184772 0.209966 -0.0971273 -0.972872 196 131 143
-0.755358 -0.438757 -0.18066 0.147396 -0.190719 -0.970516 155 52 70
-0.730747 -0.424283 -0.177616 0.216948 -0.140247 -0.966057 180 103 118
-0.68517 -0.39269 -0.174029 0.24686 -0.0540472 -0.967543 195 135 140
-0.661031 -0.406136 -0.167152 0.177071 -0.112148 -0.977788 202 140 150
-0.637939 -0.392232 -0.164873 0.180112 -0.0560308 -0.982049 200 142 152
-0.637533 -0.365282 -0.167692 0.180344 -0.121507 -0.97607 184 147 160
-0.614984 -0.378574 -0.162015 0.216917 -0.144591 -0.965423 176 105 115
-0.593057 -0.366909 -0.156492 0.248126 -0.167326 -0.954168 135 134 120
-0.565141 -0.347816 -0.151859 0.168951 -0.125622 -0.977586 62 130 80
-0.542057 -0.363621 -0.144982 0.20078 -0.1483 -0.968347 42 125 63
-0.520031 -0.336019 -0.14872 0.225626 -0.110107 -0.967972 166 172 186
-0.476563 -0.332114 -0.135282 0.281631 -0.115329 -0.952566 86 89 150
-0.457724 -0.344511 -0.128282 0.194946 -0.0452984 -0.979767 120 120 167
-0.434733 -0.328953 -0.128477 0.228484 -0.0503043 -0.972247 84 92 154
-0.373111 -0.285302 -0.123522 0.229343 -0.175204 -0.957447 87 140 200
-0.372691 -0.286198 -0.121895 0.205462 -0.16396 -0.964833 87 140 200
-0.287314 -0.274338 -0.102031 0.228151 -0.0467361 -0.972504 194 177 192
-0.267659 -0.285946 -0.0908461 0.225972 -0.1632 -0.960366 191 171 186
-0.227226 -0.260028 -0.0867801 0.254602 -0.122959 -0.959197 112 111 160
-0.225995 -0.259262 -0.0878032 0.245496 -0.0405178 -0.968551 108 108 158
-0.203233 -0.247872 -0.0848231 0.244486 0.00169541 -0.969651 104 111 172
-0.163303 -0.246952 -0.0778013 0.29315 0.00357452 -0.95606 52 66 149
-0.163312 -0.223733 -0.0776883 0.290636 -0.0668578 -0.954495 14 39 142
-0.143723 -0.23462 -0.0730528 0.269838 -0.0297128 -0.962447 17 39 139
-0.127275 -0.210142 -0.0702051 0.191029 -0.0390635 -0.980807 159 157 197
-0.10758 -0.221901 -0.0645143 0.229876 -0.057855 -0.971499 193 172 191
-0.0868521 -0.209124 -0.0615494 0.245526 -0.0201069 -0.969181 172 109 135
-0.061669 -0.195403 -0.0549933 0.258597 -0.0377257 -0.965248 198 153 178
-0.039769 -0.19905 -0.0517093 0.259434 -0.135716 -0.956177 192 155 178
0.0163062 -0.197432 -0.0387834 0.229655 -0.0615765 -0.971323 39 60 149
0.0169548 -0.173038 -0.0396888 0.231452 -0.0600841 -0.970989 28 51 146
0.0366648 -0.18528 -0.034933 0.203301 -0.0626108 -0.977113 12 37 139
0.0501164 -0.193319 -0.026225 0.218304 -0.13265 -0.966823 11 37 137
0.0520506 -0.166339 -0.0286427 0.215536 -0.154067 -0.964266 11 37 137
0.0926113 -0.169313 -0.0213922 0.226841 -0.0638215 -0.971838 48 62 140
0.092331 -0.146335 -0.0224592 0.190685 -0.0694988 -0.979188 51 65 143
0.0928646 -0.145857 -0.0226949 0.197329 -0.0747706 -0.977482 55 69 145
0.112596 -0.15808 -0.0176045 0.176753 -0.0565299 -0.982631 188 184 204
0.13832 -0.135836 -0.0161005 0.161281 -0.130522 -0.97824 38 57 144
0.15872 -0.149364 -0.0104616 0.101381 -0.113131 -0.988395 15 40 140
0.179625 -0.141777 -0.00379999 0.164328 -0.0295851 -0.985962 14 38 140
0.159062 -0.12562 -0.0122304 0.173267 -0.116972 -0.977904 13 39 139
0.196751 -0.126342 -0.00221548 0.293507 0.00375622 -0.95595 28 47 138
0.215843 -0.13831 0.00417055 0.278077 -0.0261243 -0.960203 45 60 140
0.216372 -0.116749 0.00476888 0.280548 -0.00576752 -0.959823 163 158 190
0.21545 -0.115823 0.00411756 0.318066 0.0139585 -0.947966 164 157 190
0.235392 -0.127124 0.00973677 0.29193 -0.0171154 -0.956286 186 166 187
0.254923 -0.113983 0.0130748 0.273155 -0.0590676 -0.960155 169 104 133
0.273918 -0.124925 0.0186998 0.264599 -0.102473 -0.958899 171 162 191
0.294881 -0.0897134 0.0213326 0.201068 -0.0721017 -0.976921 173 97 132
0.331376 -0.116338 0.0365613 0.24684 -0.0983912 -0.964048 186 167 190
0.331104 -0.0922071 0.0305509 0.204227 -0.140305 -0.968817 163 76 109
0.351117 -0.103325 0.0359481 0.224633 -0.12675 -0.966165 169 102 129
0.352128 -0.08111 0.0349678 0.258183 -0.0939235 -0.961519 181 101 136
0.371576 -0.0921579 0.0405538 0.244177 -0.10186 -0.964366 169 68 99
0.390984 -0.0812552 0.042942 0.193547 -0.0763016 -0.978119 182 100 130
0.37234 -0.0692993 0.0389375 0.266323 -0.0650068 -0.961689 180 138 172
0.410009 -0.0656238 0.0456632 0.223717 -0.0260197 -0.974307 140 121 163
0.429125 -0.076974 0.0500975 0.197605 -0.0420753 -0.979379 176 126 155
0.429314 -0.0538348 0.0484201 0.251012 8.86391e-05 -0.967985 132 129 174
0.447961 -0.0654853 0.0543224 0.252817 -0.0113736 -0.967447 118 110 160
0.467616 -0.0536485 0.0585102 0.229254 -0.00451629 -0.973356 95 94 149
0.485795 -0.0430446 0.0632431 0.236786 0.0110355 -0.971499 98 93 148
0.485773 -0.0653011 0.0637324 0.267193 -0.00881223 -0.963603 93 90 147
0.504852 -0.0294478 0.0661246 0.233815 -0.0472357 -0.971133 165 129 167
0.503301 -0.0518312 0.0674059 0.250971 0.0252485 -0.967665 135 133 176
0.54084 -0.0527443 0.0770256 0.252771 0.0046204 -0.967515 136 131 177
0.522145 -0.0407683 0.071811 0.230999 -0.0177652 -0.972791 153 134 172
0.541003 -0.0302713 0.0762069 0.208003 -0.0376345 -0.977404 181 130 159
0.559755 -0.0421399 0.081313 0.29366 -0.025663 -0.955566 166 141 170
0.56085 -0.0164969 0.0792273 0.210736 -0.10699 -0.971671 189 169 182
0.592984 -0.039853 0.091697 0.312212 0.179541 -0.932892 185 177 195
0.591699 -0.0174084 0.0903746 0.354558 0.230118 -0.906275 188 177 190
0.578025 -0.0288039 0.0906294 0.204273 0.0590523 -0.977132 188 174 186
0.60831 -0.0341274 0.102155 0.281776 0.295065 -0.912983 190 182 195
0.604384 -0.0122701 0.081147 0.0661972 -0.174144 -0.982493 187 177 189
0.623214 -0.0426789 0.104644 0.25298 0.430649 -0.866339 190 182 196
0.667936 -0.0107204 0.103116 0.193025 -0.0983544 -0.976252 187 181 194
-0.886541 -0.428488 -0.206745 0.254161 -0.14054 -0.956896 144 23 37
-0.868184 -0.415618 -0.206038 0.151318 -0.195452 -0.968969 154 53 71
-0.835686 -0.419737 -0.20117 0.162391 -0.144007 -0.976161 157 59 78
-0.800538 -0.409256 -0.196537 0.196629 -0.144327 -0.969797 181 112 130
-0.752319 -0.380136 -0.189368 0.274875 -0.084366 -0.957771 203 127 134
-0.730063 -0.392804 -0.183412 0.233439 -0.0749298 -0.96948 179 90 99
-0.729072 -0.36465 -0.187331 0.185129 -0.121896 -0.975125 182 99 110
-0.72908 -0.363058 -0.188061 0.116777 -0.0840828 -0.989593 181 99 109
-0.707673 -0.377554 -0.181293 0.198688 -0.125199 -0.972033 187 143 155
-0.684018 -0.367174 -0.175429 0.192005 -0.0860405 -0.977616 199 164 174
-0.638107 -0.340182 -0.168038 0.190771 -0.108683 -0.9756 177 125 136
-0.615487 -0.327937 -0.164235 0.25587 -0.114992 -0.959847 124 154 130
-0.59378 -0.341003 -0.158366 0.250811 -0.056493 -0.966387 52 126 69
-0.565008 -0.318967 -0.156626 0.149188 -0.156359 -0.976368 179 181 195
-0.541615 -0.306004 -0.154837 0.288014 -0.047844 -0.956431 79 84 146
-0.519243 -0.309399 -0.151777 0.37852 -0.0783101 -0.922274 85 92 152
-0.499872 -0.2938 -0.142517 0.314354 -0.109031 -0.943024 53 62 137
-0.476484 -0.304155 -0.138952 0.246535 -0.0338878 -0.968541 173 177 205
-0.438935 -0.303482 -0.128266 0.318554 -0.119635 -0.940325 88 142 199
-0.437947 -0.275905 -0.13005 0.512278 0.110507 -0.85168 74 141 203
-0.403305 -0.261011 -0.124148 0.323783 0.0521007 -0.944696 74 141 204
-0.327238 -0.247684 -0.111549 0.201239 -0.0575267 -0.977851 74 134 201
-0.306996 -0.236004 -0.107216 0.214797 -0.0388956 -0.975884 38 76 157
-0.286377 -0.222557 -0.10374 0.21037 -0.0419823 -0.97672 113 119 172
-0.245887 -0.222676 -0.0944982 0.198851 -0.0497089 -0.978769 115 116 165
-0.225108 -0.210889 -0.0912892 0.221642 -0.0527394 -0.973701 102 110 177
-0.225833 -0.235242 -0.0887141 0.238496 -0.0503312 -0.969838 115 119 178
-0.203267 -0.22483 -0.0845852 0.245613 0.00852568 -0.96933 22 44 138
-0.203858 -0.202702 -0.0831351 0.312248 -0.0555068 -0.948378 14 39 139
-0.182838 -0.211366 -0.0811594 0.237642 -0.0451212 -0.970304 13 39 141
-0.107315 -0.19818 -0.0657842 0.250946 -0.0462056 -0.966898 159 93 116
-0.127235 -0.185953 -0.0712335 0.179024 -0.0665381 -0.981593 191 180 205
-0.107054 -0.174491 -0.067207 0.197229 -0.0673349 -0.978042 166 105 129
-0.0805585 -0.184659 -0.0604047 0.209745 -0.0766067 -0.97475 199 162 185
-0.0620708 -0.170718 -0.0572777 0.29219 -0.0337154 -0.955766 197 158 182
-0.0805756 -0.160935 -0.0616566 0.246673 -0.0395444 -0.968291 199 166 187
-0.0424654 -0.158572 -0.0533697 0.239919 -0.0446984 -0.969763 195 161 183
-0.0408226 -0.178162 -0.0522786 0.232603 -0.150374 -0.960876 192 160 182
-0.0394806 -0.174801 -0.0531004 0.269128 -0.0830576 -0.959516 195 164 184
-0.0227475 -0.144816 -0.0508857 0.247943 -0.0799431 -0.96547 188 181 203
0.0152351 -0.147871 -0.0405449 0.270411 -0.0893641 -0.958588 26 50 147
0.0336966 -0.154384 -0.0388284 0.190547 -0.127783 -0.973326 12 38 140
0.0537098 -0.124657 -0.0354031 0.0637799 -0.00321146 -0.997959 13 38 140
0.0542757 -0.122451 -0.0385186 0.0309374 0.0535746 -0.998084 13 38 140
0.113177 -0.133787 -0.0206556 0.19105 -0.100769 -0.976394 178 176 206
0.111047 -0.111949 -0.0222341 0.226607 -0.0976 -0.969083 60 71 150
0.131085 -0.124043 -0.016805 0.210429 -0.0814869 -0.974208 59 72 151
0.131462 -0.100866 -0.0184013 0.162074 -0.0755637 -0.983881 45 60 142
0.153315 -0.0916235 -0.0143207 0.166018 -0.157438 -0.973474 132 135 180
0.150827 -0.110833 -0.012371 0.22562 -0.0399728 -0.973395 26 45 138
0.172333 -0.100398 -0.00720313 0.144262 -0.125189 -0.981589 108 112 168
0.192865 -0.086981 -0.00711647 0.175077 -0.137276 -0.974937 190 171 191
0.191664 -0.0850015 -0.00694716 0.253288 -0.0790426 -0.964156 192 164 185
0.217157 -0.0929526 0.00332493 0.223909 -0.0631556 -0.972562 172 113 136
0.214176 -0.0912698 0.00181401 0.238077 0.0182559 -0.971075 175 119 142
0.235852 -0.102352 0.00657763 0.25729 -0.0601377 -0.964462 161 88 115
0.236205 -0.0790295 0.00463279 0.245384 -0.0735075 -0.966635 183 95 134
0.255285 -0.0905307 0.0110479 0.261601 -0.0817866 -0.961705 189 105 145
0.255282 -0.0671552 0.00830019 0.250211 -0.100466 -0.962965 192 117 158
0.275172 -0.0781089 0.0142102 0.281856 -0.117073 -0.952287 191 113 154
0.295483 -0.0655409 0.0179667 0.252394 -0.0814961 -0.964186 189 127 162
0.294449 -0.0656905 0.0180784 0.23565 -0.0683871 -0.969429 189 127 162
0.312856 -0.0799622 0.0236813 0.231593 -0.0921665 -0.968437 177 92 130
0.313173 -0.0570424 0.0220674 0.228912 -0.0834571 -0.969863 185 152 183
0.332419 -0.0689185 0.02798 0.212408 -0.0767746 -0.97416 187 134 167
0.332878 -0.0453798 0.0252073 0.164595 -0.0361211 -0.9857 144 138 181
0.352122 -0.0566689 0.0317451 0.247073 -0.0370004 -0.96829 127 112 161
0.372474 -0.0459286 0.0370915 0.246212 -0.0152261 -0.969096 109 107 157
0.391382 -0.0312443 0.0395345 0.227915 -0.0237423 -0.973392 107 102 155
0.391192 -0.0564346 0.0422392 0.216119 -0.00216619 -0.976365 149 136 177
0.41032 -0.0421067 0.044059 0.22804 -0.0357499 -0.972995 85 86 148
0.429624 -0.0310586 0.0482611 0.224487 -0.0272908 -0.974094 130 122 170
0.448709 -0.020087 0.0527229 0.227143 -0.0543026 -0.972347 164 124 161
0.448493 -0.0424981 0.0537107 0.234705 0.0328056 -0.971513 136 135 182
0.466915 -0.0063717 0.0551759 0.299375 -0.073201 -0.951323 184 83 115
0.467545 -0.0317862 0.0586727 0.218317 0.0316515 -0.975365 156 137 174
0.485435 -0.0184955 0.0612497 0.189918 -0.0416409 -0.980917 184 117 152
0.504178 -0.00919328 0.0668294 0.217113 -0.087226 -0.972242 182 89 123
0.521409 0.0021448 0.0704129 0.25696 0.0577098 -0.964697 193 150 171
0.541088 -0.00784405 0.0751798 0.268898 -0.0728638 -0.960409 191 158 176
0.577656 -0.00824285 0.0865693 0.274583 -0.00650739 -0.961542 188 177 189
0.559907 0.00200107 0.0818242 0.2244 -0.0347763 -0.973876 189 178 189
0.591292 0.00303205 0.0864187 0.224439 -0.107444 -0.968547 189 182 194
0.633709 0.0337837 0.0918955 0.36513 0.0786082 -0.927632 190 184 197
0.638443 0.0235682 0.0909359 0.346921 0.0150687 -0.937773 187 181 194
0.66464 0.0386567 0.0992451 0.310098 -0.0172669 -0.950548 190 170 183
0.665601 0.0445826 0.0946386 0.37567 0.0573652 -0.924976 189 168 181
0.652903 0.0480399 0.092937 0.236378 0.0263116 -0.971304 188 169 183
0.711018 0.0534415 0.115508 0.310556 0.0756354 -0.947541 166 41 49
0.72769 0.0466269 0.118014 0.312308 0.0488783 -0.948722 169 42 54
-0.890627 -0.400504 -0.213662 0.19139 -0.0886622 -0.977501 177 92 110
-0.865818 -0.383302 -0.213453 0.247279 -0.147256 -0.95769 175 94 105
-0.845778 -0.381415 -0.208359 0.208488 -0.123791 -0.970159 195 134 141
-0.839352 -0.366734 -0.209375 0.166185 -0.152331 -0.974257 173 88 93
-0.79865 -0.37948 -0.20124 0.248421 -0.084426 -0.964966 184 117 129
-0.774407 -0.369647 -0.19476 0.22329 -0.0802629 -0.971442 186 119 127
-0.751937 -0.354184 -0.191214 0.227048 -0.105416 -0.968161 199 149 159
-0.728935 -0.341202 -0.186833 0.181882 -0.073857 -0.980543 193 149 159
-0.702906 -0.329494 -0.183005 0.208171 -0.107072 -0.972214 172 104 114
-0.681178 -0.31675 -0.178263 0.239323 -0.0741672 -0.968103 179 110 120
-0.681713 -0.342744 -0.176014 0.23538 -0.110044 -0.965653 181 124 136
-0.657956 -0.328661 -0.174109 0.223754 -0.154139 -0.96238 182 106 117
-0.635718 -0.313828 -0.172243 0.136082 -0.163951 -0.977038 176 143 148
-0.614772 -0.301702 -0.166796 0.184991 -0.0682342 -0.980369 156 168 162
-0.592151 -0.288077 -0.164737 0.212134 -0.159879 -0.964074 130 131 174
-0.593937 -0.315881 -0.159769 0.251019 -0.116633 -0.96093 142 167 154
-0.567104 -0.295699 -0.154301 0.186533 -0.163105 -0.968815 61 67 136
-0.538251 -0.269636 -0.154511 0.204438 -0.163632 -0.965106 18 39 136
-0.496856 -0.268505 -0.144918 0.226269 -0.078257 -0.970916 67 78 151
-0.422363 -0.263893 -0.124331 0.29649 -0.0679008 -0.952619 76 141 205
-0.348184 -0.236961 -0.114333 0.215328 -0.0469584 -0.975412 77 142 205
-0.286241 -0.198783 -0.104481 0.220419 -0.03232 -0.97487 74 85 152
-0.266059 -0.210652 -0.099756 0.216238 -0.0570734 -0.974672 195 189 203
-0.267108 -0.186656 -0.101022 0.223302 -0.0528524 -0.973315 195 189 206
-0.202393 -0.177263 -0.0861402 0.259511 -0.0699832 -0.963201 13 39 141
-0.202285 -0.176989 -0.0862185 0.248253 -0.0685011 -0.966271 13 39 141
-0.18446 -0.181492 -0.0840157 0.178639 -0.0972864 -0.979093 12 38 142
-0.16554 -0.164914 -0.0832394 0.280919 -0.0531002 -0.958262 13 39 142
-0.145555 -0.151305 -0.0795977 0.352797 -0.0517226 -0.934269 36 53 137
-0.127042 -0.16228 -0.0724088 0.214304 -0.0579982 -0.975044 194 180 204
-0.127002 -0.162324 -0.0725588 0.242217 -0.057923 -0.968492 194 180 204
-0.106538 -0.150676 -0.0688314 0.22228 -0.0556304 -0.973394 169 112 136
-0.0872498 -0.13981 -0.0646047 0.233389 -0.0715182 -0.96975 199 167 187
-0.0618367 -0.147572 -0.0581597 0.207417 -0.0619901 -0.976287 198 161 184
-0.0416216 -0.137078 -0.0531537 0.152019 -0.0555241 -0.986817 195 165 186
-0.0218127 -0.123605 -0.0504302 0.155506 -0.0781796 -0.984736 191 183 204
-0.00194906 -0.134151 -0.0477026 0.148868 -0.081497 -0.985493 40 56 141
0.0351002 -0.11024 -0.0442151 0.162497 -0.056052 -0.985115 13 38 139
0.0722118 -0.0893699 -0.0347272 0.253736 -0.0775259 -0.964162 38 54 140
0.0716705 -0.112643 -0.0324582 0.244375 -0.0515289 -0.968311 13 38 140
0.0913859 -0.100166 -0.0291072 0.307591 -0.0385988 -0.950736 19 40 136
0.0924618 -0.0787511 -0.0294141 0.270052 -0.103573 -0.957259 148 147 188
0.0919005 -0.0777135 -0.0303192 0.256285 -0.125614 -0.958404 149 148 188
0.111679 -0.0891816 -0.0237402 0.207084 -0.0953864 -0.973662 95 101 163
0.111675 -0.0892117 -0.0237668 0.205492 -0.0951041 -0.974026 94 101 163
0.131665 -0.0761938 -0.0202403 0.199828 -0.14204 -0.969481 191 176 199
0.131644 -0.0765872 -0.0213834 0.116896 -0.157889 -0.980513 187 175 199
0.152227 -0.089 -0.0134932 0.23857 -0.144159 -0.960366 155 153 189
0.131679 -0.0767564 -0.0213145 0.120338 -0.157584 -0.980146 187 175 199
0.172481 -0.0745848 -0.012225 0.258089 -0.100103 -0.960921 184 143 168
0.153491 -0.067225 -0.0146252 0.27443 -0.12454 -0.953508 173 113 141
0.173867 -0.0539132 -0.0116803 0.319374 -0.105389 -0.941751 178 98 133
0.193007 -0.064151 -0.00659839 0.291431 -0.103778 -0.950945 168 79 113
0.216439 -0.0655403 -0.00388674 0.203436 -0.108222 -0.973089 180 86 124
0.216446 -0.0435768 -0.00363159 0.223648 -0.0711388 -0.972071 188 112 147
0.235612 -0.0557195 0.00235354 0.197004 -0.0680991 -0.978034 191 121 158
0.233875 -0.0373184 -0.000664359 0.211152 -0.00509405 -0.97744 178 135 170
0.256838 -0.0432197 0.00552938 0.238143 0.00955594 -0.971184 161 131 172
0.255754 -0.0435122 0.00577068 0.243491 -0.0256491 -0.969564 160 130 171
0.275541 -0.0548426 0.012535 0.284525 -0.0618056 -0.956675 189 137 170
0.288749 -0.0263641 0.0133848 0.240028 -0.0403969 -0.969926 108 105 158
0.294791 -0.0427045 0.0162002 0.235656 -0.0572123 -0.970151 131 118 159
0.31416 -0.0336045 0.0203896 0.237525 -0.0459581 -0.970294 153 147 187
0.333001 -0.0233547 0.0247108 0.240855 -0.0231906 -0.970284 143 140 186
0.351559 -0.0124169 0.0292534 0.245404 -0.016083 -0.969288 145 125 165
0.351456 -0.0344469 0.0297392 0.214443 -0.0537738 -0.975255 80 81 146
0.391725 -0.00825082 0.0373405 0.25474 -0.119089 -0.959649 170 118 148
0.410524 -0.0198367 0.0432435 0.232125 -0.0577404 -0.970971 154 128 166
0.429788 -0.00870629 0.0465407 0.195299 -0.0680407 -0.978381 182 106 134
0.448964 0.00221185 0.051908 0.258086 -0.0766638 -0.963076 183 61 85
0.435816 0.0137561 0.0469313 0.248419 -0.0405978 -0.967802 183 48 65
0.437032 0.0122398 0.0481982 0.223894 -0.0447454 -0.973586 183 48 65
0.485306 0.00317169 0.0605296 0.21853 -0.0558793 -0.97423 180 68 94
0.47153 0.0256235 0.0561775 0.225581 0.0542799 -0.972711 187 120 132
0.466679 0.0149168 0.0550889 0.272706 -0.0299757 -0.96163 178 61 78
0.488046 0.0238967 0.061265 0.24812 0.051905 -0.967338 194 158 170
0.504733 0.0126871 0.0660553 0.243856 0.053948 -0.96831 192 147 162
0.520997 0.0215934 0.0721165 0.246821 0.0507607 -0.967731 190 179 191
0.540905 0.0114077 0.0805917 0.350783 0.200537 -0.914733 193 183 197
0.539437 0.0100646 0.0788243 0.358507 0.198867 -0.912099 190 178 191
0.526328 0.0175351 0.0796445 0.343566 0.315358 -0.884597 192 183 195
0.560343 0.0272854 0.0752015 0.102904 -0.0523593 -0.993312 189 176 189
0.539245 0.0365915 0.0764507 0.333297 0.133675 -0.933297 193 187 201
0.581469 0.0235664 0.0843975 0.211274 -0.0657971 -0.97521 190 185 197
0.590086 0.0567172 0.0770866 0.30004 0.0422645 -0.95299 192 187 201
0.600874 0.0582986 0.0862735 0.202071 0.0483598 -0.978176 194 186 200
0.653279 0.0650287 0.0935561 0.32547 0.0834673 -0.941861 189 152 165
0.655514 0.0676829 0.0936458 0.314615 0.155032 -0.936473 189 148 161
0.64225 0.0703796 0.0958367 0.317329 0.169992 -0.932956 190 148 160
0.644347 0.0605258 0.101851 0.175176 -0.0896851 -0.980444 189 150 163
0.677729 0.0561794 0.100174 0.314508 0.158015 -0.936011 189 141 154
0.715297 0.0785293 0.111975 0.315831 0.048212 -0.94759 176 31 33
-0.888346 -0.372111 -0.21846 0.302553 -0.0442595 -0.952105 178 90 97
-0.86358 -0.355771 -0.212899 0.237055 -0.101736 -0.966154 179 89 92
-0.839878 -0.341224 -0.21009 0.239819 -0.0977639 -0.965883 176 90 97
-0.826459 -0.353315 -0.199278 0.145824 -0.0779103 -0.986238 203 150 158
-0.774267 -0.338941 -0.199489 0.171167 -0.103266 -0.979815 188 138 148
-0.751289 -0.325969 -0.195112 0.196894 -0.12687 -0.972181 194 153 164
-0.719763 -0.311631 -0.187711 0.232436 -0.15727 -0.959813 186 117 127
-0.699289 -0.298188 -0.186179 0.184302 -0.131322 -0.974058 177 131 137
-0.6768 -0.287356 -0.182749 0.143684 -0.167829 -0.975289 136 158 138
-0.658911 -0.304306 -0.173828 0.199814 -0.110871 -0.973541 173 156 156
-0.635907 -0.289325 -0.172743 0.246014 -0.0624967 -0.967249 140 158 145
-0.614249 -0.276024 -0.169961 0.163103 -0.142116 -0.97632 164 163 190
-0.614376 -0.275706 -0.170106 0.170997 -0.135029 -0.975975 163 163 190
-0.585188 -0.26094 -0.160305 0.311246 0.020804 -0.950102 101 108 171
-0.564807 -0.271164 -0.156642 0.295756 -0.0544315 -0.953712 83 92 164
-0.561037 -0.246036 -0.161472 0.13774 -0.169594 -0.975841 10 35 137
-0.518577 -0.258636 -0.147526 0.263598 -0.0442821 -0.963616 13 38 139
-0.503663 -0.242593 -0.149745 0.329727 -0.0571789 -0.942343 26 43 136
-0.482624 -0.232178 -0.144137 0.221794 -0.0678386 -0.972731 188 183 205
-0.461416 -0.221699 -0.139328 0.224214 -0.0631853 -0.97249 151 172 204
-0.440449 -0.23528 -0.133768 0.273915 -0.055692 -0.96014 79 142 203
-0.423393 -0.218425 -0.122772 0.399688 -0.0655999 -0.914301 74 142 205
-0.357626 -0.230884 -0.0894895 -0.516707 0.1605 -0.840984 74 141 204
-0.326365 -0.199013 -0.11531 0.31762 -0.0769607 -0.94509 77 143 206
-0.306982 -0.186643 -0.110427 0.247107 -0.0548636 -0.967434 69 125 197
-0.28707 -0.174769 -0.106267 0.218702 -0.0571208 -0.974119 59 73 145
-0.267179 -0.162164 -0.102666 0.223855 -0.052584 -0.973203 196 189 206
-0.24125 -0.175526 -0.0959526 0.205279 -0.0523141 -0.977305 66 74 143
-0.241359 -0.152437 -0.0968485 0.205697 -0.0565573 -0.97698 57 68 140
-0.221046 -0.140399 -0.0934897 0.208322 -0.062363 -0.97607 38 59 149
-0.221749 -0.164586 -0.0916575 0.20089 -0.0566068 -0.977977 52 70 155
-0.184221 -0.157971 -0.0852562 0.093737 -0.135553 -0.986326 11 38 143
-0.163938 -0.116502 -0.0873092 0.32935 -0.0530684 -0.942716 13 38 141
-0.164231 -0.139325 -0.0863937 0.318911 -0.0674381 -0.945383 14 39 141
-0.145311 -0.128025 -0.0808578 0.343014 -0.0550657 -0.937715 42 58 140
-0.126156 -0.116386 -0.0752498 0.222159 -0.060976 -0.973102 196 178 198
-0.12639 -0.139344 -0.0735443 0.214866 -0.0544968 -0.975122 195 178 200
-0.106201 -0.127207 -0.0702013 0.203748 -0.0538486 -0.977542 172 116 139
-0.105963 -0.103969 -0.0714287 0.210104 -0.0673447 -0.975357 174 121 144
-0.0858658 -0.114871 -0.0673268 0.171818 -0.0823038 -0.981685 198 170 190
-0.0624438 -0.119685 -0.0608157 0.193379 -0.0819856 -0.977693 198 165 186
-0.0619188 -0.0977407 -0.0609794 0.139879 -0.11378 -0.98361 198 168 189
-0.0415297 -0.112541 -0.0537483 0.174533 -0.058987 -0.982883 195 163 185
-0.0410755 -0.0895927 -0.0550995 0.132566 -0.120294 -0.983848 197 165 186
-0.0214735 -0.099994 -0.052278 0.15788 -0.0783995 -0.984341 197 183 199
0.0158212 -0.0775037 -0.0465977 0.196661 -0.0117227 -0.980401 171 165 194
0.0350184 -0.0879584 -0.0440058 0.196603 -0.00442767 -0.980474 40 54 139
0.0350859 -0.0655727 -0.0442661 0.205505 -0.0710232 -0.976076 187 176 199
0.0548552 -0.0773532 -0.0404967 0.202088 -0.0204321 -0.979155 96 102 162
0.054859 -0.0551683 -0.0405215 0.27396 -0.0782116 -0.958556 188 157 180
0.0734661 -0.0673221 -0.0346414 0.229021 -0.0455066 -0.972358 184 172 197
0.0740004 -0.0664321 -0.0343591 0.212731 -0.15265 -0.965113 186 174 197
0.0928256 -0.0556203 -0.0312372 0.200985 -0.175056 -0.963826 175 125 150
0.112121 -0.0658154 -0.0258802 0.254372 -0.138772 -0.957099 186 152 175
0.11213 -0.0657759 -0.0258559 0.253544 -0.138267 -0.957391 186 152 175
0.133061 -0.0547405 -0.0210518 0.194919 -0.147862 -0.969609 167 92 123
0.126495 -0.0364745 -0.0249564 0.24152 -0.0671775 -0.968067 190 139 169
0.15468 -0.043096 -0.0184075 0.233824 -0.0615331 -0.970329 187 125 157
0.180034 -0.0251597 -0.0134868 0.207767 -0.0570105 -0.976516 129 116 164
0.198462 -0.0137832 -0.0101229 0.205234 -0.00687959 -0.978689 100 93 149
0.197557 -0.0366639 -0.00724615 0.254489 -0.1488 -0.955559 180 140 172
0.216623 -0.0247095 -0.00525188 0.214175 -0.0423489 -0.975877 188 140 168
0.252243 -0.0263239 0.00428324 0.269473 -0.0185488 -0.96283 131 126 175
0.234009 -0.0152055 -0.000720341 0.236826 -0.029412 -0.971107 143 123 168
0.270434 -0.0153949 0.00879338 0.227649 -0.0144709 -0.973636 93 90 146
0.252298 -0.00469237 0.00410781 0.229274 -0.0204296 -0.973147 137 133 182
0.314206 -0.0118911 0.0205725 0.244055 0.0038241 -0.969754 110 99 152
0.307277 0.00666551 0.0166749 0.194881 -0.0812073 -0.97746 165 115 151
0.324508 0.0210774 0.0175271 0.195254 -0.152259 -0.968862 183 74 101
0.333179 -0.00100266 0.0236063 0.252127 -0.061674 -0.965727 181 132 160
0.372118 0.00200804 0.0330619 0.218112 -0.0468494 -0.974799 181 89 111
0.381276 0.0289744 0.0340308 0.215083 -0.165111 -0.962537 181 47 64
0.398366 0.0351772 0.0378181 0.200653 -0.172988 -0.964269 179 48 62
0.391981 0.0136806 0.0371502 0.23442 -0.0686882 -0.969706 182 49 65
0.417244 0.024685 0.0419608 0.238501 -0.070812 -0.968557 182 44 56
0.41996 0.023101 0.0434016 0.205674 -0.0602365 -0.976765 182 44 56
0.401369 0.0344723 0.0384814 0.204088 -0.057274 -0.977276 181 49 61
0.437741 0.0347068 0.047003 0.260452 0.0351059 -0.964848 182 88 97
0.420577 0.0494075 0.0400488 0.252298 -0.0353744 -0.967003 192 132 142
0.454512 0.0247979 0.0509719 0.230806 -0.0387746 -0.972227 180 71 83
0.454399 0.0450686 0.0513057 0.274788 0.0474544 -0.960333 196 170 181
0.473644 0.05571 0.0518943 0.195741 -0.101574 -0.975382 191 181 193
0.48476 0.0327078 0.0635211 0.334054 0.195161 -0.922128 196 180 192
0.471071 0.0347088 0.05616 0.274663 0.0489103 -0.960296 196 163 174
0.469052 0.0378589 0.064049 0.356426 0.460838 -0.812766 190 175 186
0.490763 0.0642273 0.0572941 0.155038 -0.0812418 -0.984563 193 182 195
0.512379 0.0303176 0.0735015 0.295318 0.199349 -0.93437 194 185 198
0.499966 0.0417928 0.0689216 0.275996 0.125729 -0.9529 195 187 200
0.529271 0.0526152 0.0715292 0.234748 0.0478498 -0.970878 194 189 202
0.521568 0.060635 0.0674834 0.284966 0.0449761 -0.957482 195 190 204
0.551907 0.0717143 0.0694309 0.222206 0.147542 -0.963772 194 189 202
0.568482 0.0844312 0.0725581 0.313106 -0.0226513 -0.949448 194 183 196
0.569027 0.0592542 0.0772486 0.308089 0.0404937 -0.950495 193 188 201
0.590556 0.0767655 0.0772834 0.263665 -0.00218231 -0.964612 193 181 194
0.610243 0.0856437 0.0874579 0.225098 0.0459211 -0.973254 192 155 168
0.628464 0.0846957 0.0850493 0.385925 0.30463 -0.870783 193 155 167
0.628144 0.0965732 0.0925604 0.301121 0.395663 -0.867628 185 108 119
0.652882 0.0848963 0.0935908 0.436582 0.340328 -0.83281 188 119 130
0.660356 0.0940393 0.102945 0.452238 0.393901 -0.800201 169 46 50
0.640361 0.0930642 0.090923 0.379612 0.289621 -0.878643 187 116 127
0.672993 0.103743 0.107053 0.380855 0.174651 -0.907991 176 30 31
0.704988 0.0906209 0.116936 0.289307 0.197607 -0.936618 182 30 32
0.717555 0.102434 0.118913 0.343317 0.0445216 -0.938164 181 28 32
0.723386 0.177795 0.0665377 0.191463 -0.128544 -0.973046 179 28 31
-0.95365 -0.37075 -0.222349 -0.386266 0.127735 -0.9135 144 19 32
-0.885231 -0.341392 -0.219161 0.217609 -0.125936 -0.967877 167 89 98
-0.862359 -0.327646 -0.216429 0.207688 -0.0900839 -0.974038 195 158 168
-0.839105 -0.315132 -0.212866 0.17301 -0.0733736 -0.982183 196 153 163
-0.826226 -0.30342 -0.213734 0.261442 -0.0816522 -0.961759 176 109 118
-0.826174 -0.30431 -0.212894 0.325791 -0.0168055 -0.945292 175 108 117
-0.826174 -0.30431 -0.212894 0.325791 -0.0168055 -0.945292 175 108 117
-0.798423 -0.309226 -0.199798 0.324707 -0.0644321 -0.943618 195 176 188
-0.763548 -0.286594 -0.19873 0.291129 -0.0429267 -0.95572 202 159 171
-0.742176 -0.273062 -0.194534 0.295495 -0.0359116 -0.95467 148 93 103
-0.585052 -0.235415 -0.162326 0.147467 -0.11511 -0.982346 18 40 135
-0.566848 -0.224049 -0.157991 0.243798 -0.131184 -0.960913 11 36 139
-0.523743 -0.205751 -0.157851 0.203546 -0.128049 -0.970656 13 38 141
-0.503491 -0.218678 -0.150866 0.260044 -0.0620994 -0.963598 29 46 136
-0.48522 -0.207937 -0.14529 0.236031 -0.0597488 -0.969907 185 181 205
-0.503224 -0.192961 -0.153567 0.382369 -0.0444776 -0.922939 31 48 136
-0.444318 -0.207871 -0.135801 0.247934 -0.0597731 -0.966931 80 142 202
-0.424813 -0.197086 -0.131159 0.232422 -0.0568799 -0.97095 76 142 205
-0.331299 -0.143398 -0.128644 0.414058 0.093023 -0.905485 78 145 207
-0.324743 -0.149748 -0.120866 0.283125 -0.033391 -0.958501 78 142 206
-0.306105 -0.139171 -0.113733 0.287593 -0.0352314 -0.957104 43 85 166
-0.286877 -0.150636 -0.107675 0.232216 -0.0453156 -0.971608 88 97 159
-0.266961 -0.138745 -0.103745 0.221383 -0.0574919 -0.973491 196 190 204
-0.241212 -0.1291 -0.0982381 0.216636 -0.0675624 -0.973912 48 60 138
-0.221481 -0.117445 -0.0941317 0.228532 -0.0503046 -0.972236 31 54 148
-0.2034 -0.107963 -0.0882157 0.314321 -0.037016 -0.948595 13 38 141
-0.163228 -0.0927466 -0.0898997 0.297686 -0.026108 -0.954307 14 39 141
-0.145235 -0.105274 -0.0815332 0.308071 -0.0555385 -0.949741 51 65 144
-0.12593 -0.093338 -0.0764466 0.224865 -0.058987 -0.972602 196 176 195
-0.106516 -0.0806832 -0.0736485 0.175758 -0.0504127 -0.983142 174 119 143
-0.0821838 -0.0909281 -0.0676254 0.182522 -0.0560117 -0.981605 198 172 191
-0.0824215 -0.0904098 -0.067918 0.180347 -0.0594309 -0.981806 198 172 191
-0.0625217 -0.082706 -0.0627012 0.218982 -0.0457543 -0.974655 197 171 191
-0.0629317 -0.0820142 -0.0627382 0.219957 -0.0423745 -0.974588 197 171 191
-0.0615997 -0.054265 -0.0685946 0.117834 -0.157282 -0.980499 198 169 190
-0.021627 -0.0744532 -0.0561494 0.231875 -0.0895639 -0.968613 193 163 183
-0.0412798 -0.0622493 -0.0625076 0.288766 -0.0951657 -0.952659 198 167 188
0.000844752 -0.0444531 -0.0528295 0.134306 -0.142627 -0.980622 194 153 177
0.0387963 -0.0398101 -0.0460119 0.21526 -0.034302 -0.975954 180 128 155
0.0534149 -0.0385725 -0.0411625 0.227628 -0.171421 -0.958541 176 116 144
0.0729351 -0.0263223 -0.0390256 0.174177 -0.0411826 -0.983853 192 146 172
0.0888214 -0.0152675 -0.0345472 0.323144 -0.0374845 -0.945607 177 153 185
0.0917011 -0.0381054 -0.034099 0.229666 -0.044906 -0.972233 180 118 147
0.106903 -0.0262935 -0.0297955 0.290583 -0.103877 -0.951195 187 155 185
0.14277 -0.0257488 -0.0212978 0.216675 -0.0679978 -0.973873 157 135 174
0.125355 -0.0151988 -0.0258925 0.170846 -0.0181464 -0.985131 162 151 189
0.14418 -0.00331808 -0.0224682 0.236269 -0.0287853 -0.971261 108 107 161
0.161956 -0.0141001 -0.0183556 0.223865 -0.0558584 -0.973018 161 155 190
0.162501 0.007759 -0.0185177 0.245611 -0.0222656 -0.969112 162 159 195
0.180075 -0.00361373 -0.0136364 0.227989 -0.00931474 -0.973619 84 85 150
0.198246 0.00692803 -0.0087166 0.241534 -0.0212169 -0.970161 102 97 148
0.21658 -0.00340128 -0.00490832 0.217675 0.000943636 -0.976021 188 156 184
0.234503 0.00680861 -0.00111837 0.217762 -0.0361119 -0.975333 153 131 172
0.216691 0.0181882 -0.00501118 0.249708 -0.0317534 -0.9678 191 157 185
0.252434 0.0168709 0.00433307 0.227844 -0.00538908 -0.973683 174 137 175
0.270403 0.00597901 0.00914535 0.256993 -0.00842224 -0.966377 162 134 171
0.288914 0.0173477 0.0124407 0.226712 -0.0301691 -0.973494 187 107 141
0.270452 0.0275078 0.0089168 0.240325 -0.00371416 -0.970686 193 116 154
0.307597 0.0288529 0.0155493 0.21125 -0.0781293 -0.974305 189 86 121
0.28922 0.0396392 0.010601 0.235611 -0.0407531 -0.970993 194 106 146
0.326143 0.0397174 0.0198159 0.23596 -0.0582543 -0.970015 190 80 115
0.344814 0.0508358 0.0236437 0.205683 -0.055124 -0.977065 187 79 111
0.344218 0.0296306 0.0240328 0.159256 -0.129266 -0.978737 185 62 88
0.363093 0.0403074 0.0277245 0.267103 -0.0403848 -0.962822 185 59 82
0.363366 0.0620786 0.0266435 0.165233 -0.0757509 -0.983341 189 119 137
0.382671 0.0496348 0.0321507 0.177453 -0.0640503 -0.982042 184 78 95
0.401243 0.061314 0.0340853 0.213868 -0.0949468 -0.972237 197 162 173
0.420927 0.0714827 0.0383586 0.200209 -0.0907222 -0.975544 193 181 193
0.421008 0.0749191 0.0370301 0.263265 -0.136805 -0.954974 193 182 195
0.439155 0.057425 0.0491521 0.283361 0.215875 -0.934401 200 185 197
0.43842 0.0569614 0.051295 0.315002 0.274463 -0.908539 199 186 198
0.45791 0.085636 0.0514822 0.158982 -0.0157057 -0.987157 194 188 200
0.472337 0.0738645 0.0552399 0.172581 0.0122486 -0.98492 194 187 199
0.503761 0.0786634 0.0612076 0.207717 0.110268 -0.971955 198 192 206
0.492024 0.0882106 0.0563566 0.288975 0.0243363 -0.957027 195 190 203
0.519679 0.0905225 0.0633249 0.28644 0.133363 -0.948771 196 190 204
0.504914 0.100056 0.0595626 0.292607 0.200183 -0.935044 197 189 203
0.535465 0.0796579 0.0680266 0.24893 0.0734765 -0.965731 196 191 205
0.530043 0.103991 0.0674487 0.247034 0.0395919 -0.968198 192 171 184
0.552345 0.0896093 0.0713353 0.222106 0.0585242 -0.973264 194 180 193
0.58055 0.0992458 0.0715944 0.260958 0.254688 -0.931147 195 169 182
0.568179 0.0968952 0.0794996 0.182645 0.0137962 -0.983083 191 157 169
0.566729 0.0962434 0.0765762 0.261991 0.0411759 -0.964192 194 167 180
0.583152 0.121722 0.0676452 0.23172 0.336326 -0.912793 195 154 167
0.59339 0.116544 0.0842581 0.278304 0.162067 -0.946721 186 107 118
0.575037 0.12099 0.0721872 0.209873 0.303749 -0.929349 195 150 163
0.593213 0.119057 0.0835232 0.223024 0.356589 -0.907251 183 97 109
0.595439 0.0964679 0.0859208 0.243586 0.122491 -0.962113 195 152 165
0.614926 0.106234 0.0896661 0.321339 0.328397 -0.888198 184 105 116
0.601679 0.115626 0.0865422 0.236675 0.0488443 -0.97036 181 97 109
0.613076 0.126632 0.0891873 0.22666 0.0355701 -0.973324 171 45 52
0.636312 0.1157 0.0979908 0.328915 0.198537 -0.923254 171 37 40
0.626308 0.115005 0.0941255 0.246901 0.088146 -0.965023 170 47 53
0.622656 0.12409 0.0950194 0.316805 0.184074 -0.930458 171 30 32
0.631718 0.116782 0.0962821 0.352458 0.216569 -0.910423 169 42 46
0.734881 0.172178 0.103106 0.160497 -0.192367 -0.968109 177 30 33
