ply
format ascii 1.0
element vertex 40
property float x
property float y
property float z
property float nx
property float ny
property float nz
property uchar diffuse_red
property uchar diffuse_green
property uchar diffuse_blue
end_header
0.36661 0.235694 0.037213 0.0892757 0.429158 -0.898807 206 114 153
-0.260393 0.139033 -0.131175 0.104725 0.141528 -0.984379 193 171 188
-0.90111 0.152584 -0.232904 -0.861297 0.0717362 -0.503012 167 74 63
-0.207357 0.188619 -0.115844 0.130711 0.27936 -0.951248 202 165 188
-0.417909 0.363225 -0.147197 0.260735 0.578251 -0.773074 186 71 70
-0.958731 -0.11302 -0.196615 -0.968078 0.097998 -0.2307 171 95 84
-0.919165 0.0368423 -0.231164 -0.788236 0.0470555 -0.613571 156 38 29
-0.911306 0.0855018 -0.236244 -0.865005 0.184513 -0.466606 153 37 27
-0.899013 0.139187 -0.238318 -0.648965 0.0870582 -0.755821 139 48 33
-0.942847 -0.00521746 -0.196306 -0.970812 0.118525 -0.208509 157 35 25
-0.894416 0.178997 -0.235377 -0.753422 0.117429 -0.646966 152 43 33
-0.873903 0.272162 -0.243602 -0.577809 0.208808 -0.78901 159 36 29
-0.912788 0.145543 -0.206932 -0.95993 0.169979 -0.222803 157 36 27
-0.932199 0.090047 -0.167561 -0.958647 0.178573 -0.221606 158 38 28
-0.946735 0.0602854 -0.131826 -0.929364 0.198815 -0.311054 169 78 67
-0.906157 0.230795 -0.176496 -0.956975 0.192487 -0.217134 158 36 27
-0.903623 0.300361 -0.13006 -0.958185 0.215203 -0.188598 157 69 57
0.535752 0.194468 0.0780073 0.0431804 0.344158 -0.937918 204 101 135
-0.213782 -0.0556196 -0.114673 0.0390953 0.0598263 -0.997443 12 40 143
-0.22467 0.176138 -0.116276 0.0261825 0.18338 -0.982694 199 167 189
-0.544411 0.235015 -0.201774 -0.087575 0.396459 -0.913866 176 55 61
-0.90231 -0.0556162 -0.251968 -0.353991 -0.0877922 -0.931119 45 132 72
-0.974258 -0.121455 -0.139391 -0.964605 0.0949455 -0.246014 160 34 25
-0.942789 0.0318055 -0.165506 -0.968645 0.111795 -0.221877 160 35 26
-0.836295 0.43223 -0.244198 -0.464715 0.166818 -0.869605 163 36 31
-0.941011 0.106185 -0.121875 -0.934943 0.233144 -0.267441 156 59 48
-0.923559 0.201036 -0.125172 -0.963256 0.187783 -0.192029 158 61 50
0.305593 -0.363028 0.0387101 0.0166865 0.105457 -0.994284 117 125 163
-0.349801 -0.287085 -0.107334 0.0128434 0.139031 -0.990204 78 126 193
0.204295 0.184641 0.00613442 -0.21183 0.541325 -0.813692 190 43 53
-0.691851 0.0403393 -0.216436 0.0548697 0.00711998 -0.998468 206 162 185
-0.889432 -0.0427041 -0.257923 -0.482982 -0.181281 -0.856659 43 135 76
-0.990603 -0.168198 -0.108358 -0.955598 0.127037 -0.265884 166 69 60
-0.884022 0.274743 -0.233612 -0.723966 -0.233825 -0.648998 158 34 26
-0.945485 0.0765247 -0.127967 -0.940614 0.180583 -0.287465 152 39 29
-0.898495 0.318448 -0.155154 -0.846557 0.262788 -0.462907 167 75 64
-0.774206 0.238288 -0.233361 0.177615 0.0675848 -0.981777 192 141 148
-0.879184 0.264852 -0.205436 -0.679211 -0.275419 -0.680306 162 36 27
0.561019 0.215756 0.0839332 0.0227311 0.691324 -0.722187 185 79 102
0.0139942 0.264122 -0.0567681 -0.014006 0.387193 -0.921892 191 45 51
