ply
format ascii 1.0
element vertex 347
property float x
property float y
property float z
property float nx
property float ny
property float nz
property uchar diffuse_red
property uchar diffuse_green
property uchar diffuse_blue
end_header
-0.36634 -0.461458 -0.0954255 0.180202 -0.133706 -0.9745 194 162 168
-0.823097 -0.223585 -0.211267 0.221752 -0.135705 -0.965614 142 19 32
-0.635907 -0.289325 -0.172743 0.246014 -0.0624967 -0.967249 140 158 145
-0.678697 -0.223182 -0.187096 0.291122 -0.0328383 -0.956122 107 152 121
-0.506744 -0.3007 -0.142379 0.665787 -0.0206986 -0.745856 86 98 158
-0.415457 -0.369101 -0.11978 0.166901 -0.102399 -0.980641 181 144 162
-0.678339 -0.200449 -0.187615 0.280683 -0.0438045 -0.958801 169 182 180
-0.455982 -0.315685 -0.133893 0.191935 -0.050717 -0.980096 123 142 192
-0.698762 -0.187753 -0.193797 0.266223 -0.0722255 -0.961201 77 139 93
-0.636953 -0.200909 -0.177537 0.215063 -0.111872 -0.970171 94 102 170
-0.518651 -0.282808 -0.14679 0.133931 -0.0805828 -0.987709 24 43 136
-0.373388 -0.374041 -0.103028 0.253582 -0.153773 -0.955013 193 180 193
-0.269511 -0.396966 -0.0815754 0.249649 -0.1436 -0.95763 192 180 195
-0.394798 -0.307857 -0.115358 0.13981 0.0745589 -0.987368 97 140 198
-0.698536 -0.163003 -0.195284 0.246776 -0.0376014 -0.968342 127 162 139
-0.518577 -0.258636 -0.147526 0.263598 -0.0442821 -0.963616 13 38 139
-0.413971 -0.317197 -0.122968 0.150046 0.00728834 -0.988652 108 130 185
-0.328737 -0.322687 -0.106778 0.19895 -0.168705 -0.965379 191 179 192
-0.286449 -0.352894 -0.094405 0.214594 -0.0186884 -0.976524 108 107 157
-0.162791 -0.401466 -0.0650776 0.225207 -0.0162688 -0.974175 191 162 184
-0.30875 -0.312372 -0.10083 0.276901 -0.130402 -0.95201 187 170 186
-0.63994 -0.152318 -0.180099 0.274297 -0.0573142 -0.959936 42 59 146
-0.327238 -0.247684 -0.111549 0.201239 -0.0575267 -0.977851 74 134 201
-0.167339 -0.321718 -0.0709442 0.146924 -0.113248 -0.982643 194 178 193
-0.103537 -0.337103 -0.0533131 0.18081 -0.0976944 -0.978654 195 173 190
0.0253665 -0.390967 -0.0234535 0.298903 -0.041097 -0.953398 105 104 157
-0.696175 -0.0397968 -0.201796 0.274315 -0.0915504 -0.957272 194 150 174
-0.163904 -0.271709 -0.0758828 0.270614 -0.0727021 -0.959939 102 102 160
0.109204 -0.417568 -0.0036194 0.050383 -0.00672009 -0.998707 182 162 184
0.0884495 -0.402861 -0.00824474 0.142536 -0.0745182 -0.986981 88 89 150
0.314612 -0.50164 0.0450407 0.27129 -0.0615042 -0.960531 181 73 106
0.0892211 -0.375916 -0.0121445 0.302046 -0.144573 -0.942267 44 54 140
-0.787525 0.0814311 -0.228664 0.166436 -0.0656689 -0.983863 61 105 64
0.425348 -0.525903 0.0750625 0.0102687 -0.0807997 -0.996678 175 62 97
0.314951 -0.448976 0.0427373 0.263877 -0.0781247 -0.961387 146 136 172
0.423806 -0.49372 0.0710181 0.136811 0.0602294 -0.988764 171 76 110
-0.729185 0.0703272 -0.216219 0.166055 -0.0394727 -0.985326 186 164 176
-0.692495 0.0487337 -0.208452 0.183807 -0.0466946 -0.981853 194 164 183
0.120326 -0.344208 -0.00675973 0.234236 -0.10282 -0.966727 180 168 191
-0.823034 0.12644 -0.235252 0.172493 -0.142619 -0.974631 142 164 149
-0.306212 -0.116596 -0.113876 0.287964 -0.0464482 -0.956514 28 54 139
0.16312 -0.34315 -0.000249574 0.11971 -0.0468825 -0.991702 173 149 178
0.358482 -0.448446 0.054057 0.213806 -0.0874183 -0.972957 95 97 155
-0.618321 0.0394822 -0.191271 0.254506 -0.111648 -0.960605 193 184 199
-0.286858 -0.127594 -0.108378 0.230756 -0.0651932 -0.970825 150 151 192
-0.127275 -0.210142 -0.0702051 0.191029 -0.0390635 -0.980807 159 157 197
-0.325266 -0.104426 -0.119915 0.268706 -0.0283011 -0.962807 63 117 191
-0.691387 0.094154 -0.210197 0.204591 0.00970823 -0.978799 63 108 71
0.456194 -0.462903 0.0784158 0.381527 0.00852264 -0.924319 99 98 149
-0.221481 -0.117445 -0.0941317 0.228532 -0.0503046 -0.972236 31 54 148
-0.478051 0.0122696 -0.156739 0.294213 -0.0527475 -0.954283 177 179 208
-0.0805585 -0.184659 -0.0604047 0.209745 -0.0766067 -0.97475 199 162 185
0.0164322 -0.221044 -0.0373434 0.209592 -0.064082 -0.975687 46 65 152
-0.597079 0.0812687 -0.189312 0.220501 -0.0565589 -0.973745 108 118 100
-0.223228 -0.0918661 -0.0992928 0.176968 -0.0940087 -0.979717 30 55 151
0.110348 -0.282154 -0.0108223 0.206442 -0.0454067 -0.977405 169 169 203
0.535019 -0.49492 0.0965823 0.130956 0.185398 -0.973898 180 142 166
-0.43767 0.0148295 -0.149795 0.180862 -0.0244379 -0.983205 46 82 161
0.0163062 -0.197432 -0.0387834 0.229655 -0.0615765 -0.971323 39 60 149
-0.539429 0.0796957 -0.176436 0.196804 -0.093119 -0.97601 177 128 150
0.351645 -0.36854 0.050063 0.198014 -0.127587 -0.97186 94 93 149
0.0169548 -0.173038 -0.0396888 0.231452 -0.0600841 -0.970989 28 51 146
0.271177 -0.31413 0.0277802 0.230785 -0.03344 -0.97243 131 132 176
0.556458 -0.456321 0.101501 0.233454 -0.0606118 -0.970477 147 65 91
-0.558469 0.10411 -0.182741 0.212239 -0.0576913 -0.975513 159 141 174
-0.531117 0.0917633 -0.175308 0.246064 -0.0787324 -0.966051 165 127 159
-0.47503 0.0813469 -0.162365 0.250277 -0.0876416 -0.964199 167 113 140
-0.774206 0.238288 -0.233361 0.177615 0.0675848 -0.981777 192 141 148
-0.739871 0.216414 -0.226321 0.208925 -0.0422346 -0.977019 187 125 129
0.15367 -0.175987 -0.0148309 0.0985306 -0.0120068 -0.995062 27 50 145
-0.684326 0.228022 -0.216269 0.193101 -0.0220214 -0.980931 189 102 104
-0.52475 0.143161 -0.177706 0.196792 -0.07482 -0.977586 117 111 160
0.152531 -0.20254 -0.00863721 0.236564 -0.0917642 -0.967272 41 60 150
0.432863 -0.326455 0.062615 0.331378 -0.0710962 -0.940816 70 81 157
-0.245623 0.034296 -0.111283 0.198829 -0.0538173 -0.978556 194 176 195
-0.738147 0.28094 -0.228791 0.291867 -0.153866 -0.944001 185 68 65
-0.472498 0.154832 -0.166611 0.219348 -0.0547051 -0.974112 196 162 186
-0.384455 0.101004 -0.143999 0.271013 -0.0313634 -0.962064 106 104 160
0.113177 -0.133787 -0.0206556 0.19105 -0.100769 -0.976394 178 176 206
0.216045 -0.163695 0.0064151 0.217811 -0.0653762 -0.973799 18 41 138
0.633748 -0.405235 0.120669 0.321989 0.0251737 -0.946409 168 65 98
-0.403228 0.133458 -0.148152 0.230903 0.0167169 -0.972833 193 162 186
0.29213 -0.206791 0.0287611 0.275384 -0.0463488 -0.960217 49 69 158
0.432107 -0.279919 0.0640623 0.242707 -0.0560193 -0.968481 53 71 154
0.0158457 -0.0552607 -0.0466961 0.171628 0.00535436 -0.985148 184 147 169
-0.244995 0.0780215 -0.112992 0.220408 -0.0177983 -0.975245 89 88 150
0.432155 -0.256073 0.0632702 0.263726 -0.0383208 -0.963836 41 63 152
-0.096667 0.0088295 -0.0777295 0.294464 -0.116402 -0.948547 192 162 187
0.150827 -0.110833 -0.012371 0.22562 -0.0399728 -0.973395 26 45 138
-0.160692 0.0898258 -0.0957263 0.216274 -0.0527583 -0.974906 185 158 189
0.0717197 -0.00326212 -0.0402099 0.2154 -0.055321 -0.974957 172 161 195
-0.297369 0.185331 -0.129793 0.32076 -0.00062327 -0.94716 178 172 178
0.216439 -0.0655403 -0.00388674 0.203436 -0.108222 -0.973089 180 86 124
-0.00737035 0.0426415 -0.0586347 0.21733 -0.0032965 -0.976093 179 164 195
0.161956 -0.0141001 -0.0183556 0.223865 -0.0558584 -0.973018 161 155 190
0.255282 -0.0671552 0.00830019 0.250211 -0.100466 -0.962965 192 117 158
0.144105 0.0184783 -0.0227733 0.244572 -0.0350947 -0.968996 115 112 165
0.427215 -0.130754 0.052962 0.24211 -0.00329092 -0.970243 171 80 107
-0.00321568 0.0882442 -0.0615281 0.213355 -0.0758198 -0.974028 192 87 122
0.599244 -0.205112 0.099968 0.308092 -0.041264 -0.950461 176 160 181
-0.224873 0.220718 -0.115631 0.2243 -0.0815694 -0.971101 102 126 109
0.198319 0.028507 -0.00901014 0.18826 0.0568207 -0.980474 188 148 177
0.466882 -0.100105 0.061467 0.245515 -0.0893825 -0.965264 176 61 84
-0.193484 0.259962 -0.125388 0.411307 -0.109113 -0.904943 135 148 144
0.41032 -0.0421067 0.044059 0.22804 -0.0357499 -0.972995 85 86 148
0.600732 -0.132604 0.0960437 0.234545 -0.104595 -0.966462 170 56 85
0.504228 -0.076348 0.0689226 0.233636 -0.0608709 -0.970417 137 128 167
-0.185551 0.273471 -0.10254 0.256248 0.10174 -0.961242 101 118 98
-0.42398 0.382076 -0.145816 0.395886 0.234784 -0.887779 185 73 74
-0.160348 0.340462 -0.0805088 0.414317 0.505206 -0.757039 185 92 104
-0.211468 0.366313 -0.0896085 0.270548 0.427987 -0.86234 157 38 34
-0.221843 0.365535 -0.0145016 0.0987269 0.989636 -0.104279 161 84 80
0.769956 -0.00579316 0.13346 0.478765 0.00926962 -0.877894 164 29 32
-0.232792 0.368084 -0.00270156 0.12098 0.990257 -0.068953 157 61 53
-0.0658477 0.33967 -0.00995802 0.128303 0.99155 -0.0191237 147 46 38
-0.00375387 0.327423 0.00696392 0.185865 0.972155 -0.142722 145 52 44
0.778559 0.0659486 0.116696 0.344809 0.14207 -0.927859 176 49 67
-0.0991599 0.34561 0.0287274 0.127629 0.991619 0.0200956 74 107 142
0.335825 0.24445 0.030041 0.0377641 0.722556 -0.690279 191 79 105
0.0910772 0.312205 0.0319929 0.161033 0.984404 -0.0708325 156 58 49
-0.23389 0.373759 0.0395869 0.329484 0.937642 -0.110761 151 61 54
0.032582 0.323571 0.0316968 0.17559 0.984122 -0.0259459 44 47 96
0.0296627 0.325019 0.0760494 0.1951 0.980748 -0.00838956 102 102 131
0.0456145 0.322094 0.0803847 0.198741 0.979933 -0.015265 67 69 109
0.171183 0.299063 0.0670001 0.190225 0.981285 -0.0299025 40 44 97
0.00450399 0.329647 0.0846682 0.170094 0.984319 -0.0467313 45 47 94
-0.0226357 0.335238 0.092456 0.207157 0.977044 -0.0496978 159 88 85
0.149337 0.303573 0.103729 0.169151 0.985589 0.0017841 38 44 97
0.198847 0.297189 0.116512 0.0701764 0.996794 -0.0384314 162 45 34
0.210401 0.291365 0.15249 0.181884 0.968982 0.167306 123 35 27
0.45779 0.246453 0.150666 0.260674 0.963299 0.0640625 161 49 37
0.491625 0.238623 0.192084 0.113458 0.991951 0.056202 179 143 136
-0.774407 -0.369647 -0.19476 0.22329 -0.0802629 -0.971442 186 119 127
-0.707674 -0.406828 -0.177183 0.20566 -0.0574667 -0.976935 183 123 136
-0.684018 -0.367174 -0.175429 0.192005 -0.0860405 -0.977616 199 164 174
-0.637939 -0.392232 -0.164873 0.180112 -0.0560308 -0.982049 200 142 152
-0.584457 -0.392649 -0.152736 0.211791 -0.0589403 -0.975536 181 116 125
-0.422314 -0.510835 -0.0890592 0.44645 -0.0525541 -0.893264 159 100 106
-0.454956 -0.41022 -0.121713 0.536641 -0.162239 -0.828067 184 151 160
-0.614772 -0.301702 -0.166796 0.184991 -0.0682342 -0.980369 156 168 162
-0.542341 -0.332437 -0.151962 0.141001 -0.0997381 -0.984973 167 178 182
-0.699309 -0.236793 -0.190982 0.297977 -0.0276645 -0.954172 34 130 57
-0.22476 -0.394161 -0.0727443 0.196907 -0.164249 -0.966566 190 172 191
-0.620011 -0.189481 -0.172398 0.214571 -0.132332 -0.967702 19 41 133
-0.54533 -0.236561 -0.151044 0.157632 -0.00116148 -0.987497 12 38 140
-0.566848 -0.224049 -0.157991 0.243798 -0.131184 -0.960913 11 36 139
-0.465513 -0.276296 -0.132237 0.443957 -0.123981 -0.887429 149 171 203
-0.185604 -0.389316 -0.0689249 0.290031 -0.0495707 -0.955732 174 153 181
-0.634095 -0.172711 -0.184482 0.22193 -0.0292172 -0.974625 82 94 167
-0.587725 -0.218889 -0.150199 0.545079 0.466702 -0.696476 23 56 150
-0.584636 -0.187571 -0.160957 0.300796 -0.0235321 -0.953398 11 37 139
-0.60545 -0.181803 -0.158789 0.467364 0.139465 -0.872995 13 36 139
-0.603197 -0.155615 -0.163901 0.33768 -0.00917719 -0.941216 11 36 137
-0.185874 -0.362888 -0.0743598 0.183011 -0.0393405 -0.982324 136 124 169
-0.103879 -0.362359 -0.0513163 0.23367 0.0675982 -0.969964 174 150 178
-0.248281 -0.298061 -0.0866436 0.34029 -0.160126 -0.926586 192 187 199
-0.01826 -0.396827 -0.0338947 0.297946 -0.0919242 -0.950147 194 159 181
-0.327348 -0.224249 -0.111657 0.207448 -0.0411396 -0.977381 76 140 204
-0.0603977 -0.362425 -0.0430559 0.196135 -0.00345314 -0.980571 184 151 178
-0.286377 -0.222557 -0.10374 0.21037 -0.0419823 -0.97672 113 119 172
-0.123683 -0.323143 -0.060479 0.158326 -0.138759 -0.977588 194 175 191
-0.0812014 -0.32679 -0.0481308 0.193118 -0.115502 -0.974354 193 172 190
-0.754662 0.0105764 -0.215154 0.327957 -0.0513035 -0.943298 146 43 58
0.15328 -0.395395 0.0047604 0.161248 -0.0675098 -0.984602 186 81 121
-0.0589516 -0.282955 -0.0514703 0.238693 -0.025817 -0.970752 81 87 159
-0.676473 -0.0169668 -0.192375 0.277659 -0.0959478 -0.955876 198 178 195
0.0899119 -0.319786 -0.0121109 0.180419 -0.115109 -0.976831 15 38 134
0.180975 -0.360252 0.00589341 0.158058 -0.0602924 -0.985587 183 114 144
0.474712 -0.49867 0.0809976 0.155031 0.150552 -0.976371 172 91 124
-0.127235 -0.185953 -0.0712335 0.179024 -0.0665381 -0.981593 191 180 205
-0.0868521 -0.209124 -0.0615494 0.245526 -0.0201069 -0.969181 172 109 135
0.457104 -0.483966 0.0745249 0.325672 0.224928 -0.918338 177 122 149
-0.545156 0.0383487 -0.178023 0.286366 0.101875 -0.952689 30 48 139
0.158499 -0.291394 -0.00208099 0.183294 -0.0730415 -0.980341 16 37 133
0.272147 -0.375423 0.0307828 0.290667 -0.0850832 -0.953034 178 172 189
-0.784283 0.171965 -0.230552 0.254823 -0.185772 -0.948975 183 95 95
-0.0805756 -0.160935 -0.0616566 0.246673 -0.0395444 -0.968291 199 166 187
0.251986 -0.305547 0.0243738 0.21001 -0.0640002 -0.975603 184 180 198
-0.512416 0.0810446 -0.171209 0.182056 -0.0568618 -0.981643 173 123 147
-0.22434 -0.0671695 -0.0996478 0.184177 -0.118708 -0.975699 22 47 148
0.470911 -0.427155 0.0837162 0.372521 0.0306105 -0.927519 12 32 125
-0.765003 0.20663 -0.233067 0.149096 0.032478 -0.988289 182 117 121
-0.455478 0.0705729 -0.157531 0.218722 -0.0865675 -0.97194 170 117 141
-0.157384 -0.0661831 -0.092798 0.520261 0.0168384 -0.853841 27 46 144
-0.71171 0.202999 -0.215078 -0.133162 0.393785 -0.909506 199 124 128
-0.47398 0.103674 -0.164087 0.232127 0.0103547 -0.97263 133 126 180
-0.0214735 -0.099994 -0.052278 0.15788 -0.0783995 -0.984341 197 183 199
0.0172171 -0.1206 -0.0487073 0.155637 0.112403 -0.981398 22 45 146
0.375715 -0.296096 0.0470368 0.224025 -0.106779 -0.968716 45 60 136
-0.284066 0.0345348 -0.119984 0.182758 -0.0628333 -0.981148 196 177 194
-0.136303 0.00441071 -0.0853148 0.195603 -0.0710401 -0.978106 192 146 169
0.234547 -0.172427 0.0107979 0.308332 -0.0387269 -0.950491 76 86 152
0.159062 -0.12562 -0.0122304 0.173267 -0.116972 -0.977904 13 39 139
-0.19015 0.0682111 -0.101961 0.230024 -0.0330763 -0.972623 75 76 144
-0.29715 0.120985 -0.126561 0.163073 -0.0587418 -0.984864 193 167 190
-0.0801228 0.0194235 -0.0727449 0.268023 -0.165649 -0.949066 194 160 185
0.254492 -0.138063 0.0157296 0.307862 -0.0306538 -0.950937 189 177 194
0.28704 -0.152126 0.0237273 0.162222 -0.000705655 -0.986754 31 51 141
-0.454863 0.231741 -0.164804 0.248498 0.0241967 -0.96833 200 160 173
-0.2255 0.195689 -0.11334 0.135621 0.115003 -0.984063 176 170 178
0.0357999 -0.00352095 -0.0496084 0.299069 0.0920239 -0.949783 193 157 185
0.428877 -0.187974 0.0557921 0.253551 -0.100016 -0.962138 28 47 134
0.41029 -0.162737 0.0502965 0.36611 -0.150221 -0.918366 181 169 187
0.556072 -0.252218 0.0914939 0.214824 -0.0562572 -0.975031 155 50 76
0.535922 -0.216496 0.0860857 0.149841 -0.0218475 -0.988469 152 149 185
-0.242668 0.185992 -0.117897 0.162401 0.0322547 -0.986198 189 177 189
0.275541 -0.0548426 0.012535 0.284525 -0.0618056 -0.956675 189 137 170
0.216623 -0.0247095 -0.00525188 0.214175 -0.0423489 -0.975877 188 140 168
-0.332636 0.246503 -0.138023 0.242409 -0.0910324 -0.965894 186 130 136
-0.348381 0.252688 -0.139419 0.0357536 -0.0725353 -0.996725 197 149 157
0.0135505 0.0975448 -0.0581608 0.225525 -0.0376513 -0.97351 191 75 107
0.252298 -0.00469237 0.00410781 0.229274 -0.0204296 -0.973147 137 133 182
0.541423 -0.09729 0.078302 0.231412 -0.0556336 -0.971264 158 109 141
-0.165867 0.252362 -0.111802 0.526754 -0.304043 -0.79378 187 159 174
-0.212338 0.279289 -0.110419 0.139717 0.107159 -0.984376 73 101 80
0.467545 -0.0317862 0.0586727 0.218317 0.0316515 -0.975365 156 137 174
0.593872 -0.0739721 0.084613 0.288217 0.0584667 -0.955779 136 128 173
0.435816 0.0137561 0.0469313 0.248419 -0.0405978 -0.967802 183 48 65
-0.197898 0.320006 -0.102076 0.266388 0.0894182 -0.959709 97 107 91
0.578025 -0.0288039 0.0906294 0.204273 0.0590523 -0.977132 188 174 186
-0.111507 0.341368 -0.0608565 0.00810694 0.994846 -0.101072 168 43 38
-0.191026 0.359535 -0.0541918 0.185304 0.981672 -0.0445215 161 48 39
0.410853 0.171165 0.0381237 0.206563 0.0699361 -0.975931 201 169 182
-0.126724 0.350606 -0.0238781 0.129062 0.990912 -0.0379194 123 138 156
0.773217 -0.0078522 0.135038 0.468949 0.0221216 -0.882948 166 29 31
-0.23851 0.372893 0.0239751 0.303512 0.950648 -0.0643993 155 60 52
0.0967302 0.308666 0.00480588 0.183304 0.982097 -0.0434265 164 44 34
0.063713 0.317812 0.0398461 0.188085 0.981941 -0.0203709 117 93 113
-0.062879 0.342245 0.0496137 0.175267 0.98449 0.00775484 38 44 94
0.150242 0.300713 0.0445401 0.234188 0.969757 -0.0687666 142 132 146
0.0959326 0.31198 0.0482628 0.219371 0.975282 -0.0264736 159 117 117
0.0628012 0.319324 0.0771755 0.211181 0.97701 -0.0292024 38 45 95
0.199934 0.293753 0.0718636 0.142554 0.986965 -0.0746843 122 93 109
0.592653 0.203472 0.0924302 0.356763 0.679693 -0.640888 191 63 75
0.280258 0.280786 0.11773 0.183169 0.983021 -0.0109231 174 134 126
-0.752978 -0.410006 -0.184772 0.209966 -0.0971273 -0.972872 196 131 143
-0.403866 -0.488601 -0.0908973 0.44537 0.0650242 -0.892982 190 143 153
-0.319834 -0.50137 -0.0740054 0.466995 -0.0291947 -0.883777 167 132 134
-0.740903 -0.21968 -0.199681 0.278558 -0.0628176 -0.958363 34 128 55
-0.620474 -0.165007 -0.174135 0.300323 -0.036989 -0.95312 12 36 137
-0.637116 -0.125135 -0.186521 0.22244 -0.0259411 -0.974601 20 42 137
-0.0162652 -0.418119 -0.0365921 0.437325 -0.0079648 -0.899269 190 134 167
-0.267659 -0.285946 -0.0908461 0.225972 -0.1632 -0.960366 191 171 186
0.382593 -0.617601 0.0790284 0.158705 -0.0752194 -0.984457 173 68 82
0.517359 -0.672777 0.130973 0.472625 0.132617 -0.871228 165 50 63
0.542574 -0.689327 0.148704 0.0424752 0.825272 -0.563136 163 56 73
0.570872 -0.678379 0.142741 0.573851 0.261675 -0.776029 166 56 74
-0.0363236 -0.310383 -0.0590602 0.433302 -0.0633963 -0.899017 193 170 190
0.1523 -0.418078 0.00368534 0.112363 -0.0502465 -0.992397 181 68 105
-0.502372 -0.03235 -0.159185 0.26047 -0.0603736 -0.963592 85 92 160
-0.521877 0.00349087 -0.169532 0.274589 -0.0244748 -0.96125 13 37 140
-0.380418 -0.0499617 -0.135479 0.223306 -0.0340087 -0.974155 77 142 206
-0.422024 -0.00646818 -0.14375 0.208454 0.00281284 -0.978028 70 127 198
-0.670645 0.126676 -0.203822 0.168674 0.19213 -0.966765 55 77 53
-0.305561 -0.0478682 -0.117361 0.157577 -0.0580921 -0.985796 191 156 172
-0.75722 0.227541 -0.230489 0.218755 -0.00186383 -0.975778 194 148 155
-0.33557 0.0328666 -0.130305 0.21172 -0.0957061 -0.972633 198 164 183
0.0926113 -0.169313 -0.0213922 0.226841 -0.0638215 -0.971838 48 62 140
0.352616 -0.314187 0.0482251 0.202923 -0.0276209 -0.978806 10 34 132
-0.508415 0.219131 -0.177633 0.285363 -0.0716096 -0.95574 166 38 39
-0.297527 0.0990687 -0.125123 0.169158 -0.041231 -0.984727 124 114 161
-0.4548 0.211502 -0.165639 0.235352 0.0959776 -0.967159 196 165 187
-0.315438 0.152888 -0.132495 0.242645 -0.0800847 -0.966803 197 165 186
0.106903 -0.0262935 -0.0297955 0.290583 -0.103877 -0.951195 187 155 185
0.445973 -0.197442 0.0581823 0.12524 -0.036065 -0.991471 11 36 134
0.15468 -0.043096 -0.0184075 0.233824 -0.0615331 -0.970329 187 125 157
0.576576 -0.263717 0.0956317 0.237727 -0.0841039 -0.967685 176 58 93
-0.159415 0.13488 -0.0980695 0.306334 0.0112793 -0.951857 199 136 171
-0.0543153 0.0977574 -0.0738921 0.176088 -0.0334855 -0.983805 198 129 165
0.0717142 0.0180465 -0.0401039 0.239011 -0.00639545 -0.970996 115 115 169
0.371576 -0.0921579 0.0405538 0.244177 -0.10186 -0.964366 169 68 99
0.521693 -0.108902 0.074168 0.193118 -0.141454 -0.970926 169 66 88
-0.15899 0.236862 -0.0962703 0.199996 0.0602652 -0.977941 191 130 148
0.6285 -0.137077 0.102815 0.221263 -0.11012 -0.968977 180 64 98
0.590326 -0.0739479 0.0835964 0.289617 0.0513501 -0.955764 142 134 177
0.382671 0.0496348 0.0321507 0.177453 -0.0640503 -0.982042 184 78 95
0.398366 0.0351772 0.0378181 0.200653 -0.172988 -0.964269 179 48 62
0.437741 0.0347068 0.047003 0.260452 0.0351059 -0.964848 182 88 97
0.643218 -0.0715983 0.106153 0.299639 0.0657461 -0.951784 187 177 190
-0.172622 0.318187 -0.0926252 0.303155 0.208167 -0.929926 121 122 112
-0.102769 0.329307 -0.0637811 0.168306 0.78093 -0.601516 177 42 46
0.743329 -0.0420462 0.117708 0.39948 0.105511 -0.91065 184 157 170
-0.379019 0.395403 -0.027993 0.163004 0.986018 -0.0346316 161 51 40
0.680832 0.0275866 0.105514 0.297469 -0.0826269 -0.95115 190 169 182
0.787469 -0.0170185 0.142195 0.614276 -0.210971 -0.760366 167 28 30
-0.290978 0.380365 -0.00452729 0.173108 0.984572 -0.0255185 169 70 58
-0.00780673 0.324816 -0.00606476 0.214578 0.956319 -0.198518 136 38 30
-0.122025 0.350444 -0.00840794 0.125402 0.989535 -0.0713759 85 124 154
-0.184056 0.362707 0.00827921 0.141699 0.989722 -0.0193003 36 43 95
0.446425 0.209707 0.0419332 0.542786 0.121071 -0.831098 181 55 72
0.351418 0.245794 0.0323088 0.365797 0.476625 -0.799388 196 96 132
-0.0945523 0.344148 0.0461575 0.107837 0.993536 -0.0354545 129 130 147
-0.00969767 0.330674 0.0347039 0.120467 0.990416 -0.067551 113 100 119
-0.0161952 0.332408 0.0645203 0.224866 0.973402 -0.0438824 152 92 93
0.504919 0.211563 0.0670151 0.411069 0.784355 -0.464554 202 101 137
0.285009 0.278896 0.134468 0.220589 0.973507 0.0602028 175 128 121
0.421462 0.254107 0.155269 0.166786 0.982893 0.0781289 175 133 125
-0.826174 -0.30431 -0.212894 0.325791 -0.0168055 -0.945292 175 108 117
-0.564733 -0.19867 -0.155587 0.43 -0.140253 -0.891869 15 39 140
-0.165403 -0.370916 -0.0687417 0.26427 -0.051892 -0.963052 129 114 158
-0.183377 -0.212239 -0.081362 0.19923 -0.0167533 -0.97981 13 39 140
-0.190994 -0.0814611 -0.0922869 0.380938 -0.108108 -0.918259 13 39 143
0.0904372 -0.222372 -0.0179642 0.182035 -0.0583743 -0.981558 29 47 134
-0.262993 -0.0172024 -0.110723 0.191668 -0.0971671 -0.976638 195 178 192
0.492695 -0.386933 0.0812147 0.475907 -0.206038 -0.855021 8 32 127
0.331986 -0.281838 0.0468958 0.262603 -0.0860023 -0.961063 9 34 136
0.197552 -0.151954 0.00110945 0.212753 -0.0572401 -0.975428 14 39 140
0.534818 -0.28921 0.0891154 0.244112 -0.044642 -0.968719 177 159 182
0.473211 -0.227176 0.0655183 0.330234 -0.0826494 -0.940274 11 34 133
-0.26241 0.224522 -0.11915 0.214813 0.0644595 -0.974526 67 91 74
0.656656 -0.170694 0.112364 0.27187 -0.100874 -0.957032 178 49 74
0.466915 -0.0063717 0.0551759 0.299375 -0.073201 -0.951323 184 83 115
0.411274 0.130452 0.0372383 0.172079 0.045786 -0.984019 195 184 197
-0.180634 0.359604 -0.0174152 0.191038 0.981571 -0.00472882 51 54 99
-0.0277233 0.332654 -0.0299345 0.322257 0.932672 0.162091 165 42 33
-0.1217 0.350321 0.0256418 0.195453 0.980674 0.00871565 74 122 157
0.5778 0.167974 0.0768115 0.112875 -0.126844 -0.985479 183 32 37
0.722015 0.0852464 0.118369 0.321936 0.113841 -0.939893 173 31 32
0.614915 0.142936 0.0937424 0.283917 0.032001 -0.958315 184 29 31
0.252175 0.285255 0.0511912 -0.0801355 0.996645 0.0166287 157 39 28
0.216558 0.290405 0.163589 0.178514 0.981076 0.0749953 155 43 32
-0.455196 -0.291413 -0.136966 0.115738 -0.011888 -0.993209 107 147 195
-0.290412 -0.329044 -0.0965727 0.285778 -0.122358 -0.950452 153 146 179
-0.0841915 -0.373874 -0.0475913 0.239513 0.0654707 -0.968683 184 156 184
0.383112 -0.422804 0.0603471 0.300437 -0.0411227 -0.952915 145 145 177
0.0366648 -0.18528 -0.034933 0.203301 -0.0626108 -0.977113 12 37 139
0.57549 -0.472357 0.111073 0.466513 -0.184403 -0.865079 172 89 122
-0.0410755 -0.0895927 -0.0550995 0.132566 -0.120294 -0.983848 197 165 186
-0.175761 0.187332 -0.107209 0.182491 0.1587 -0.970315 197 140 166
-0.316299 0.295168 -0.132127 0.214044 0.106434 -0.971008 192 99 104
0.1485 0.239369 -0.0322641 -0.203032 0.632833 -0.747195 187 34 40
-0.208248 0.364813 0.0321492 0.332313 0.940515 -0.0707125 40 44 92
0.435061 0.227471 0.0567718 0.371125 0.403423 -0.836371 189 64 80
-0.84088 -0.158065 -0.211925 0.449029 0.333379 -0.828994 47 118 55
-0.123108 -0.373501 -0.0572805 0.254763 0.0797809 -0.963707 140 120 165
-0.195403 -0.140932 -0.0858955 0.21355 -0.0339858 -0.976341 14 39 142
-0.0250505 -0.032574 -0.0607634 0.230218 -0.172726 -0.957688 195 156 182
0.493522 -0.29026 0.0792547 0.299685 -0.0763401 -0.950979 12 33 129
0.72361 -0.300735 0.151546 0.43929 0.158653 -0.884224 170 52 84
0.360303 0.166112 0.0217368 0.00328266 0.516278 -0.856415 193 127 144
0.462323 0.246866 0.16492 0.264918 0.963136 -0.0467688 172 107 97
0.111272 -0.209856 -0.0154577 0.166017 -0.0640595 -0.98404 184 182 204
-0.738002 -0.187605 -0.204598 0.27414 -0.137657 -0.951787 34 130 57
0.389082 -0.352036 0.0653218 0.020404 -0.0141598 -0.999692 139 143 182
0.514014 -0.376312 0.0889719 0.264326 -0.0883629 -0.960377 9 31 126
-0.298496 0.143424 -0.128097 0.233908 -0.0729756 -0.969516 196 165 186
0.539245 0.0365915 0.0764507 0.333297 0.133675 -0.933297 193 187 201
