ply
format ascii 1.0
element vertex 120
property float x
property float y
property float z
property float nx
property float ny
property float nz
property uchar diffuse_red
property uchar diffuse_green
property uchar diffuse_blue
end_header
-0.150136 -0.195369 -0.0887184 0.585137 0.0206126 -0.810673 35 52 147
0.180334 -0.31302 -0.00845497 0.224285 0.311627 -0.923355 114 108 161
0.0172171 -0.1206 -0.0487073 0.155637 0.112403 -0.981398 22 45 146
-0.71171 0.202999 -0.215078 -0.133162 0.393785 -0.909506 199 124 128
0.0357999 -0.00352095 -0.0496084 0.299069 0.0920239 -0.949783 193 157 185
0.19687 0.0482555 -0.00681446 0.273129 0.0525324 -0.960542 196 123 157
-0.212338 0.279289 -0.110419 0.139717 0.107159 -0.984376 73 101 80
-0.197898 0.320006 -0.102076 0.266388 0.0894182 -0.959709 97 107 91
0.0963721 0.29375 -0.0134726 -0.129664 0.99021 -0.0516782 183 53 59
0.276731 0.22865 0.0263769 0.110562 0.931326 -0.346999 189 47 54
-0.449708 0.402787 -0.0857552 0.24406 0.9433 -0.22499 155 45 33
-0.116584 0.348553 -0.0372449 0.125578 0.991608 -0.0307155 123 111 127
0.122878 0.296545 0.00257138 0.00967766 0.945156 -0.326475 162 41 34
0.395571 0.23831 0.0489557 0.382958 0.364523 -0.848803 193 100 134
-0.289996 0.376381 -0.0437834 0.233102 0.940727 -0.246363 155 52 41
-0.0971409 0.344834 -0.0162997 0.204177 0.97869 -0.0218568 101 106 129
-0.358696 0.390226 -0.0469534 0.184108 0.982671 0.0214884 167 74 64
-0.212055 0.363975 -0.0285335 0.141221 0.986809 -0.0791387 159 75 70
-0.149947 0.354979 -0.0258593 0.145459 0.988109 -0.0498277 53 54 96
-0.0661205 0.3395 -0.00899598 0.135834 0.990396 -0.0257794 148 47 39
-0.314207 0.383211 -0.0357642 0.164211 0.98642 0.00322729 170 83 73
-0.00375387 0.327423 0.00696392 0.185865 0.972155 -0.142722 145 52 44
-0.482228 0.412517 -0.0542406 0.155095 0.987577 -0.0252236 160 49 37
-0.45308 0.406716 -0.0449538 0.163032 0.985548 -0.0459828 161 51 40
-0.221843 0.365535 -0.0145016 0.0987269 0.989636 -0.104279 161 84 80
-0.63689 0.43906 -0.0705721 0.245323 0.908025 -0.33957 169 95 86
-0.424019 0.403122 -0.0379171 0.156013 0.986507 -0.0496458 162 46 33
0.075085 0.315789 0.0273481 0.183454 0.982753 -0.0232434 153 56 48
-0.591544 0.432445 -0.0635572 0.14253 0.979964 -0.139132 161 75 64
-0.408812 0.399953 -0.0332887 0.146358 0.98821 -0.0449427 162 47 35
-0.379019 0.395403 -0.027993 0.163004 0.986018 -0.0346316 161 51 40
0.0910772 0.312205 0.0319929 0.161033 0.984404 -0.0708325 156 58 49
-0.232792 0.368084 -0.00270156 0.12098 0.990257 -0.068953 157 61 53
-0.0516173 0.338298 0.0380605 0.115032 0.993249 -0.0150278 48 48 95
0.309949 0.270772 0.083273 0.100799 0.978702 -0.178836 164 56 45
-0.318418 0.38528 0.00361081 0.12382 0.992125 -0.01888 170 82 71
-0.286125 0.380368 0.0113884 0.172497 0.983977 -0.0450958 173 83 72
0.0730172 0.317124 0.0717141 0.165276 0.986142 -0.0143534 50 54 98
-0.23389 0.373759 0.0395869 0.329484 0.937642 -0.110761 151 61 54
-0.17469 0.359818 0.0421944 0.193562 0.980976 0.0148613 73 75 108
-0.158703 0.356644 0.0478113 0.142735 0.989628 0.0162445 120 139 156
0.0296627 0.325019 0.0760494 0.1951 0.980748 -0.00838956 102 102 131
0.0456145 0.322094 0.0803847 0.198741 0.979933 -0.015265 67 69 109
0.00450399 0.329647 0.0846682 0.170094 0.984319 -0.0467313 45 47 94
0.45779 0.246453 0.150666 0.260674 0.963299 0.0640625 161 49 37
-0.0226357 0.335238 0.092456 0.207157 0.977044 -0.0496978 159 88 85
0.50202 0.238016 0.160209 0.121473 0.988944 0.0850621 164 45 33
0.101572 0.312823 0.108962 0.180955 0.981812 -0.0574474 48 50 94
-0.114563 0.349503 0.0853989 0.0606182 0.996763 -0.0528123 152 48 38
0.317523 0.272288 0.148026 0.103653 0.993088 0.0550659 168 110 102
-0.0180961 0.334384 0.110068 0.183887 0.982685 -0.022715 153 61 54
-0.00206198 0.331234 0.114015 0.210893 0.97715 -0.0264745 152 84 82
0.210401 0.291365 0.15249 0.181884 0.968982 0.167306 123 35 27
0.370846 0.264824 0.174502 0.166437 0.984311 -0.058563 176 122 114
0.480788 0.242176 0.201594 0.243547 0.969592 0.0240099 177 134 127
-0.670645 0.126676 -0.203822 0.168674 0.19213 -0.966765 55 77 53
-0.20422 0.117391 -0.102352 0.329274 0.142985 -0.933345 199 152 182
-0.437854 0.303412 -0.160081 0.334004 0.0364569 -0.941866 164 53 57
0.592984 -0.039853 0.091697 0.312212 0.179541 -0.932892 185 177 195
-0.129078 0.285773 -0.0858864 0.290766 0.0365614 -0.956095 193 62 72
-0.158745 0.307727 -0.0895275 0.34555 0.137278 -0.928304 182 137 145
0.411035 0.150834 0.0380869 0.172866 0.115293 -0.978175 198 176 188
-0.111507 0.341368 -0.0608565 0.00810694 0.994846 -0.101072 168 43 38
-0.181772 0.354936 -0.0628811 0.138013 0.975422 -0.171766 158 43 34
0.397947 0.221931 0.0469282 0.326431 0.332901 -0.884658 200 95 127
-0.502948 0.415508 -0.0854824 0.162264 0.986709 -0.00872319 162 69 59
0.165382 0.290441 0.0117363 0.240787 0.934615 -0.261758 160 41 33
0.52053 0.220932 0.0737097 0.448648 0.691832 -0.565759 189 90 123
-0.576903 0.429418 -0.0588696 0.136977 0.987993 -0.071471 166 77 67
0.032582 0.323571 0.0316968 0.17559 0.984122 -0.0259459 44 47 96
0.150242 0.300713 0.0445401 0.234188 0.969757 -0.0687666 142 132 146
0.210312 0.290829 0.0600691 0.234701 0.967426 -0.0948734 154 59 51
0.0959326 0.31198 0.0482628 0.219371 0.975282 -0.0264736 159 117 117
0.171183 0.299063 0.0670001 0.190225 0.981285 -0.0299025 40 44 97
0.205041 0.296819 0.0852502 0.0432291 0.990485 -0.130654 152 85 85
0.290454 0.277396 0.10627 0.284096 0.957519 -0.0494872 170 122 114
0.432752 0.252665 0.142626 0.135516 0.990694 -0.0126732 175 116 108
0.198847 0.297189 0.116512 0.0701764 0.996794 -0.0384314 162 45 34
0.326102 0.271823 0.129147 0.172136 0.985048 0.00705529 171 135 127
0.420086 0.254136 0.187755 0.0733232 0.997274 0.00830328 179 127 118
-0.783427 -0.208638 -0.201792 0.400065 0.0724343 -0.913619 45 116 54
-0.777378 0.221571 -0.230702 0.355063 0.022543 -0.93457 194 148 156
-0.26241 0.224522 -0.11915 0.214813 0.0644595 -0.974526 67 91 74
-0.208241 0.360707 -0.0686589 0.269674 0.951473 -0.148244 157 41 32
0.446425 0.209707 0.0419332 0.542786 0.121071 -0.831098 181 55 72
0.717555 0.102434 0.118913 0.343317 0.0445216 -0.938164 181 28 32
-0.0559592 0.334075 -0.018834 0.263016 0.964336 -0.0296211 132 35 28
0.38504 0.233154 0.0420501 0.308327 0.408098 -0.859297 196 104 145
-0.00780673 0.324816 -0.00606476 0.214578 0.956319 -0.198518 136 38 30
0.0967302 0.308666 0.00480588 0.183304 0.982097 -0.0434265 164 44 34
-0.122025 0.350444 -0.00840794 0.125402 0.989535 -0.0713759 85 124 154
-0.00969767 0.330674 0.0347039 0.120467 0.990416 -0.067551 113 100 119
-0.0161952 0.332408 0.0645203 0.224866 0.973402 -0.0438824 152 92 93
0.353226 0.266715 0.121468 0.17197 0.984929 0.0184308 174 126 119
-0.858087 -0.14867 -0.221944 0.571231 0.450019 -0.686424 69 92 47
-0.388096 -0.191716 -0.123509 0.67666 -0.025012 -0.73587 72 145 209
-0.359927 -0.0996741 -0.138479 0.365525 0.218178 -0.90487 78 145 208
-0.490944 0.271872 -0.173746 0.339446 0.0279215 -0.940211 160 36 38
-0.316287 0.274386 -0.132671 0.274588 0.105247 -0.955784 193 124 132
0.567839 0.0847156 0.0683517 0.173532 0.175959 -0.968981 191 180 195
0.521568 0.060635 0.0674834 0.284966 0.0449761 -0.957482 195 190 204
-0.237424 0.361773 -0.0605717 -0.366928 0.916304 0.160476 181 46 36
-0.0398122 0.33176 -0.0142294 0.0899276 0.984082 -0.15328 132 37 29
-0.507717 0.416891 -0.0636371 0.181341 0.98312 0.0242711 162 52 41
-0.307177 0.383117 -0.00864331 0.140933 0.989938 -0.0126626 163 58 46
0.0410465 0.3227 0.0638903 0.17192 0.984875 -0.0215246 125 123 146
-0.137875 0.351797 0.0493569 0.21373 0.976184 0.0371949 76 121 154
0.414174 0.257298 0.169359 0.143439 0.989617 0.00919775 172 116 108
-0.610307 -0.141935 -0.148316 0.856794 -0.0122387 -0.515513 16 39 142
0.539437 0.0100646 0.0788243 0.358507 0.198867 -0.912099 190 178 191
0.13504 0.258691 -0.0276978 -0.205228 0.299002 -0.931922 196 44 52
0.374203 0.173296 0.0278061 0.0330296 0.468592 -0.882797 188 108 125
0.474331 0.242266 0.108366 0.526618 0.822572 0.214595 166 50 38
0.301332 0.275272 0.138721 0.21585 0.973443 0.0762713 178 140 132
0.0303857 0.325966 0.120575 0.229416 0.973304 -0.00679611 150 89 89
0.126045 0.307567 0.147783 0.16083 0.986375 0.034597 153 60 53
-0.0240643 -0.00907774 -0.0644205 0.31153 0.0612679 -0.948259 198 158 186
-0.239377 0.350635 -0.101965 0.269696 0.37835 -0.885503 182 71 74
-0.229464 0.373162 0.0562353 0.30006 0.949837 -0.0881602 154 51 42
0.183447 0.299629 0.157219 0.200217 0.976611 -0.0783874 150 46 37
