ply
format ascii 1.0
element vertex 289
property float x
property float y
property float z
property float nx
property float ny
property float nz
property uchar diffuse_red
property uchar diffuse_green
property uchar diffuse_blue
end_header
-0.584706 -0.419503 -0.150349 0.219971 -0.0768378 -0.972476 199 138 148
-0.707674 -0.406828 -0.177183 0.20566 -0.0574667 -0.976935 183 123 136
-0.637939 -0.392232 -0.164873 0.180112 -0.0560308 -0.982049 200 142 152
0.459138 -0.520217 0.0817057 0.119383 -0.0923096 -0.988548 176 64 103
0.541735 -0.574236 0.110763 0.308721 0.000169339 -0.951152 171 60 77
0.423806 -0.49372 0.0710181 0.136811 0.0602294 -0.988764 171 76 110
-0.144616 -0.408821 -0.0634599 0.221883 0.0567074 -0.973423 193 157 180
0.0670565 -0.416098 -0.0126955 0.256957 -0.0239843 -0.966125 176 158 187
0.109204 -0.417568 -0.0036194 0.050383 -0.00672009 -0.998707 182 162 184
0.358289 -0.474313 0.0550462 0.243914 -0.0381249 -0.969047 178 127 151
0.473511 -0.474024 0.0822596 0.37368 0.0344781 -0.926917 129 121 162
0.494194 -0.491845 0.0890555 0.13756 0.126515 -0.98238 171 140 165
-0.01826 -0.396827 -0.0338947 0.297946 -0.0919242 -0.950147 194 159 181
-0.787797 -0.286498 -0.21375 0.252731 -0.055063 -0.965969 198 170 180
-0.614772 -0.301702 -0.166796 0.184991 -0.0682342 -0.980369 156 168 162
0.456194 -0.462903 0.0784158 0.381527 0.00852264 -0.924319 99 98 149
-0.506744 -0.3007 -0.142379 0.665787 -0.0206986 -0.745856 86 98 158
-0.69915 -0.272035 -0.187579 0.0922871 -0.037484 -0.995027 88 138 98
-0.081429 -0.348736 -0.0498183 0.188501 -0.0816361 -0.978674 196 167 187
-0.207939 -0.318435 -0.082557 0.168049 -0.0676233 -0.983457 196 183 196
-0.146854 -0.33082 -0.066898 0.265036 -0.0903902 -0.959993 196 176 193
0.513979 -0.430001 0.0908811 0.237246 -0.0657884 -0.96922 23 41 124
0.470911 -0.427155 0.0837162 0.372521 0.0306105 -0.927519 12 32 125
-0.699309 -0.236793 -0.190982 0.297977 -0.0276645 -0.954172 34 130 57
-0.287314 -0.274338 -0.102031 0.228151 -0.0467361 -0.972504 194 177 192
0.16312 -0.34315 -0.000249574 0.11971 -0.0468825 -0.991702 173 149 178
-0.246199 -0.270532 -0.0926609 0.192114 0.0480526 -0.980195 196 187 199
-0.164726 -0.297318 -0.0724526 0.262585 -0.0583735 -0.963142 193 184 202
-0.122921 -0.297521 -0.0635137 0.199759 -0.0404618 -0.979009 194 186 200
0.328813 -0.381266 0.0463033 0.222006 -0.0467853 -0.973922 161 158 187
-0.678339 -0.200449 -0.187615 0.280683 -0.0438045 -0.958801 169 182 180
-0.163904 -0.271709 -0.0758828 0.270614 -0.0727021 -0.959939 102 102 160
0.632296 -0.378391 0.118337 0.182441 -0.0520352 -0.981839 172 59 95
-0.698536 -0.163003 -0.195284 0.246776 -0.0376014 -0.968342 127 162 139
-0.143723 -0.23462 -0.0730528 0.269838 -0.0297128 -0.962447 17 39 139
0.332135 -0.30467 0.0453497 0.313622 -0.0354064 -0.948888 11 34 133
-0.0874084 -0.233627 -0.0593774 0.244386 -0.0182323 -0.969506 185 170 194
0.110617 -0.257957 -0.0121836 0.204096 -0.0449673 -0.977917 178 175 201
0.534446 -0.338521 0.091609 0.251837 0.00431905 -0.96776 166 161 189
-0.699486 -0.137 -0.19508 0.301686 -0.0480095 -0.952198 163 179 172
-0.150136 -0.195369 -0.0887184 0.585137 0.0206126 -0.810673 35 52 147
-0.127275 -0.210142 -0.0702051 0.191029 -0.0390635 -0.980807 159 157 197
0.555846 -0.300532 0.0943245 0.22015 -0.0367184 -0.974775 152 50 76
-0.714682 -0.0769308 -0.203279 0.234164 -0.132843 -0.963079 152 64 89
-0.286858 -0.127594 -0.108378 0.230756 -0.0651932 -0.970825 150 151 192
-0.0805756 -0.160935 -0.0616566 0.246673 -0.0395444 -0.968291 199 166 187
0.535922 -0.216496 0.0860857 0.149841 -0.0218475 -0.988469 152 149 185
0.112596 -0.15808 -0.0176045 0.176753 -0.0565299 -0.982631 188 184 204
-0.344164 -0.0710116 -0.125083 0.250578 -0.023534 -0.967811 60 110 186
-0.362754 -0.0586687 -0.131425 0.277818 0.012725 -0.96055 74 135 203
0.13832 -0.135836 -0.0161005 0.161281 -0.130522 -0.97824 38 57 144
0.254492 -0.138063 0.0157296 0.307862 -0.0306538 -0.950937 189 177 194
0.370233 -0.163261 0.0438154 0.127454 -0.0252811 -0.991522 32 49 131
-0.157384 -0.0661831 -0.092798 0.520261 0.0168384 -0.853841 27 46 144
0.0913859 -0.100166 -0.0291072 0.307591 -0.0385988 -0.950736 19 40 136
-0.674494 0.0130295 -0.202346 0.255934 -0.118105 -0.959452 193 152 176
-0.404122 -0.0201079 -0.138098 0.170137 -0.028723 -0.985001 72 130 199
-0.021627 -0.0744532 -0.0561494 0.231875 -0.0895639 -0.968613 193 163 183
-0.81749 0.0416603 -0.232692 0.193393 -0.0537649 -0.979647 106 152 117
-0.483403 -0.021249 -0.154309 0.25929 -0.0602228 -0.96392 193 190 205
-0.262993 -0.0172024 -0.110723 0.191668 -0.0971671 -0.976638 195 178 192
0.275172 -0.0781089 0.0142102 0.281856 -0.117073 -0.952287 191 113 154
0.408728 -0.118015 0.0488901 0.131128 -0.00576606 -0.991349 158 48 70
-0.692495 0.0487337 -0.208452 0.183807 -0.0466946 -0.981853 194 164 183
-0.63465 0.0364544 -0.194991 0.214813 -0.0891626 -0.972576 193 178 193
0.371576 -0.0921579 0.0405538 0.244177 -0.10186 -0.964366 169 68 99
0.541423 -0.09729 0.078302 0.231412 -0.0556336 -0.971264 158 109 141
0.505104 -0.0994001 0.0702519 0.210623 -0.0805554 -0.974243 172 90 114
-0.227079 0.0464771 -0.109159 0.203837 0.000369189 -0.979005 164 154 187
0.0357999 -0.00352095 -0.0496084 0.299069 0.0920239 -0.949783 193 157 185
0.216623 -0.0247095 -0.00525188 0.214175 -0.0423489 -0.975877 188 140 168
-0.634761 0.0821496 -0.197793 0.181588 -0.0129641 -0.983289 186 174 184
-0.47503 0.0813469 -0.162365 0.250277 -0.0876416 -0.964199 167 113 140
-0.512416 0.0810446 -0.171209 0.182056 -0.0568618 -0.981643 173 123 147
-0.455478 0.0705729 -0.157531 0.218722 -0.0865675 -0.97194 170 117 141
-0.398158 0.0604041 -0.144502 0.19846 -0.0804605 -0.976801 175 122 148
0.54084 -0.0527443 0.0770256 0.252771 0.0046204 -0.967515 136 131 177
0.645269 -0.0844203 0.107829 0.374359 0.0712315 -0.924544 185 170 182
-0.862317 0.127135 -0.242789 0.0748901 -0.0154189 -0.997072 111 152 121
-0.0250724 0.032148 -0.0625298 0.226916 0.00956791 -0.973867 108 106 164
0.216691 0.0181882 -0.00501118 0.249708 -0.0317534 -0.9678 191 157 185
0.504852 -0.0294478 0.0661246 0.233815 -0.0472357 -0.971133 165 129 167
-0.72485 0.136416 -0.217948 0.281547 -0.128515 -0.950903 58 77 50
0.391382 -0.0312443 0.0395345 0.227915 -0.0237423 -0.973392 107 102 155
-0.65139 0.142799 -0.203872 0.136333 -0.0437222 -0.989697 58 73 51
0.56085 -0.0164969 0.0792273 0.210736 -0.10699 -0.971671 189 169 182
0.029834 0.0644671 -0.0522258 0.204213 -0.0487929 -0.97771 193 140 174
0.288914 0.0173477 0.0124407 0.226712 -0.0301691 -0.973494 187 107 141
-0.366643 0.11286 -0.140958 0.246007 -0.0685016 -0.966845 160 149 183
-0.594635 0.154105 -0.191892 0.207071 -0.0337746 -0.977743 128 113 159
-0.438865 0.132943 -0.155969 0.260561 0.0620179 -0.963463 187 166 191
-0.403228 0.133458 -0.148152 0.230903 0.0167169 -0.972833 193 162 186
-0.244862 0.120746 -0.113855 0.289789 -0.0372766 -0.956365 196 166 187
-0.505752 0.154117 -0.174381 0.193794 -0.108674 -0.975005 187 173 194
-0.490248 0.169497 -0.170953 0.251245 -0.116215 -0.960922 197 167 186
-0.297369 0.185331 -0.129793 0.32076 -0.00062327 -0.94716 178 172 178
-0.525982 0.209572 -0.180178 0.172968 0.0180087 -0.984763 165 34 35
0.75441 0.0509198 0.114494 0.319331 0.00367267 -0.947636 174 53 75
-0.207258 0.190487 -0.114958 0.174183 0.159857 -0.971651 198 165 187
-0.702084 0.260163 -0.221261 0.225486 0.00514288 -0.974233 185 67 67
-0.314549 0.216366 -0.135055 0.274759 -0.0184559 -0.961336 176 87 86
-0.348381 0.252688 -0.139419 0.0357536 -0.0725353 -0.996725 197 149 157
-0.454893 0.273086 -0.165425 0.314811 -0.00891994 -0.949112 157 41 44
-0.212338 0.279289 -0.110419 0.139717 0.107159 -0.984376 73 101 80
-0.169322 0.283196 -0.0969371 0.305975 0.0590496 -0.950206 187 147 157
0.493891 0.197717 0.0669228 0.40029 0.780631 -0.479983 195 98 134
-0.197898 0.320006 -0.102076 0.266388 0.0894182 -0.959709 97 107 91
-0.438611 0.356507 -0.157563 0.398966 0.109611 -0.910391 157 43 46
-0.42398 0.382076 -0.145816 0.395886 0.234784 -0.887779 185 73 74
-0.751462 0.449527 -0.218265 0.0781095 0.958037 -0.275797 175 61 61
-0.66155 0.436917 -0.187851 0.187037 0.907401 -0.376352 154 34 30
-0.131999 0.348781 -0.0384906 0.172567 0.983557 -0.0532588 126 114 129
0.0862149 0.31018 0.0183516 0.220067 0.966705 -0.130579 156 44 34
0.150242 0.300713 0.0445401 0.234188 0.969757 -0.0687666 142 132 146
-0.0658477 0.33967 -0.00995802 0.128303 0.99155 -0.0191237 147 46 38
-0.00375387 0.327423 0.00696392 0.185865 0.972155 -0.142722 145 52 44
0.171183 0.299063 0.0670001 0.190225 0.981285 -0.0299025 40 44 97
0.45779 0.246453 0.150666 0.260674 0.963299 0.0640625 161 49 37
0.032582 0.323571 0.0316968 0.17559 0.984122 -0.0259459 44 47 96
-0.232792 0.368084 -0.00270156 0.12098 0.990257 -0.068953 157 61 53
-0.184056 0.362707 0.00827921 0.141699 0.989722 -0.0193003 36 43 95
-0.570467 0.426996 -0.0858984 0.182001 0.9828 0.031322 159 42 31
0.154516 0.303368 0.120148 0.212665 0.976803 -0.0250541 52 51 93
0.00450399 0.329647 0.0846682 0.170094 0.984319 -0.0467313 45 47 94
-0.0700952 0.343437 0.0805511 0.202089 0.978649 -0.0374772 74 65 95
-0.23389 0.373759 0.0395869 0.329484 0.937642 -0.110761 151 61 54
0.0303857 0.325966 0.120575 0.229416 0.973304 -0.00679611 150 89 89
-0.162144 0.358876 0.0700591 0.21743 0.975529 -0.0326629 113 107 122
-0.229464 0.373162 0.0562353 0.30006 0.949837 -0.0881602 154 51 42
-0.684018 -0.367174 -0.175429 0.192005 -0.0860405 -0.977616 199 164 174
-0.751937 -0.354184 -0.191214 0.227048 -0.105416 -0.968161 199 149 159
-0.794858 -0.289477 -0.222302 0.247051 0.522843 -0.815844 194 159 170
-0.0162652 -0.418119 -0.0365921 0.437325 -0.0079648 -0.899269 190 134 167
0.1523 -0.418078 0.00368534 0.112363 -0.0502465 -0.992397 181 68 105
-0.0833405 -0.347975 -0.0503331 0.189856 -0.0942043 -0.977282 196 167 187
0.180975 -0.360252 0.00589341 0.158058 -0.0602924 -0.985587 183 114 144
-0.518577 -0.258636 -0.147526 0.263598 -0.0442821 -0.963616 13 38 139
-0.461629 -0.247484 -0.13709 0.179655 -0.0524592 -0.98233 157 174 204
-0.602613 -0.223611 -0.166695 0.272869 -0.037533 -0.961319 37 54 139
-0.0603089 -0.244569 -0.0532332 0.307636 -0.043368 -0.950515 161 156 189
0.29109 -0.303004 0.0333032 0.240039 0.00593494 -0.970745 92 102 171
-0.327802 -0.176926 -0.112447 0.0469256 -0.10808 -0.993034 78 143 207
0.411332 -0.290761 0.0630702 -0.0347189 -0.0499343 -0.998149 104 108 161
0.576216 -0.288863 0.0980977 0.222346 -0.0556317 -0.973379 176 58 93
0.534396 -0.238582 0.0819106 0.241021 -0.0892617 -0.966406 179 160 184
0.445973 -0.197442 0.0581823 0.12524 -0.036065 -0.991471 11 36 134
0.0172171 -0.1206 -0.0487073 0.155637 0.112403 -0.981398 22 45 146
0.216045 -0.163695 0.0064151 0.217811 -0.0653762 -0.973799 18 41 138
0.292252 -0.183339 0.0277623 0.267573 -0.0375865 -0.962805 34 58 152
0.351772 -0.17247 0.0395097 0.176614 -0.0518865 -0.982911 12 35 134
-0.22434 -0.0671695 -0.0996478 0.184177 -0.118708 -0.975699 22 47 148
-0.754662 0.0105764 -0.215154 0.327957 -0.0513035 -0.943298 146 43 58
-0.797438 0.0299537 -0.226937 0.161386 -0.0691524 -0.984466 131 163 138
0.637573 -0.179781 0.106885 0.177075 -0.0726135 -0.981515 171 48 73
-0.856242 0.063071 -0.239898 0.0998407 0.07572 -0.992118 39 131 63
-0.344996 0.0180342 -0.131021 0.230791 -0.0681133 -0.970617 165 98 120
0.0729351 -0.0263223 -0.0390256 0.174177 -0.0411826 -0.983853 192 146 172
0.173867 -0.0539132 -0.0116803 0.319374 -0.105389 -0.941751 178 98 133
0.15468 -0.043096 -0.0184075 0.233824 -0.0615331 -0.970329 187 125 157
-0.176055 0.00648556 -0.0944352 0.233594 -0.0135953 -0.972239 182 129 152
-0.382781 0.0399909 -0.140242 0.217249 -0.101359 -0.97084 167 103 124
-0.0070997 0.0214137 -0.058396 0.213702 0.0217551 -0.976656 119 117 167
-0.0618541 0.0318975 -0.0724014 0.287751 0.0156447 -0.957578 195 149 178
-0.842524 0.138753 -0.239821 0.128051 -0.0639303 -0.989705 117 141 119
0.125928 0.00761123 -0.0273473 0.2575 -0.0217519 -0.966033 148 144 187
0.252298 -0.00469237 0.00410781 0.229274 -0.0204296 -0.973147 137 133 182
0.467545 -0.0317862 0.0586727 0.218317 0.0316515 -0.975365 156 137 174
-0.613396 0.142412 -0.195807 0.207007 -0.0381666 -0.977595 103 103 145
-0.561925 0.143485 -0.185894 0.206064 -0.0634673 -0.976478 119 113 160
0.159146 0.057553 -0.0197192 0.19553 -0.0752498 -0.977806 196 128 164
0.180626 0.0387399 -0.0115362 0.236173 0.10039 -0.966511 195 138 169
0.307597 0.0288529 0.0155493 0.21125 -0.0781293 -0.974305 189 86 121
0.448964 0.00221185 0.051908 0.258086 -0.0766638 -0.963076 183 61 85
0.504178 -0.00919328 0.0668294 0.217113 -0.087226 -0.972242 182 89 123
-0.721481 0.203702 -0.225657 0.0372036 -0.0538612 -0.997856 191 120 125
-0.777378 0.221571 -0.230702 0.355063 0.022543 -0.93457 194 148 156
-0.508415 0.219131 -0.177633 0.285363 -0.0716096 -0.95574 166 38 39
-0.279244 0.194173 -0.125689 0.232599 -0.0802273 -0.969258 71 97 75
0.342902 0.136064 0.0141234 0.189148 0.0484872 -0.980751 193 167 178
0.411035 0.150834 0.0380869 0.172866 0.115293 -0.978175 198 176 188
0.52298 0.199956 0.0795335 0.22662 0.162317 -0.960363 197 103 141
-0.453097 0.354083 -0.163064 0.376089 0.0569073 -0.924834 163 46 47
0.0967302 0.308666 0.00480588 0.183304 0.982097 -0.0434265 164 44 34
-0.195545 0.357209 -0.0666136 0.167379 0.968159 -0.18615 157 42 32
-0.00780673 0.324816 -0.00606476 0.214578 0.956319 -0.198518 136 38 30
0.210312 0.290829 0.0600691 0.234701 0.967426 -0.0948734 154 59 51
-0.126724 0.350606 -0.0238781 0.129062 0.990912 -0.0379194 123 138 156
0.205041 0.296819 0.0852502 0.0432291 0.990485 -0.130654 152 85 85
0.357828 0.266271 0.137515 0.160178 0.98599 -0.0465591 176 137 129
0.175886 0.29902 0.0827548 0.230593 0.973045 -0.00292675 72 68 107
0.296388 0.277529 0.121874 0.139141 0.990253 -0.00621694 180 144 136
-0.168609 0.365072 -0.0150669 0.182001 0.980923 -0.0682988 37 43 97
-0.00969767 0.330674 0.0347039 0.120467 0.990416 -0.067551 113 100 119
0.024944 0.325617 0.0596564 0.197409 0.980066 -0.0223752 42 47 96
-0.0161952 0.332408 0.0645203 0.224866 0.973402 -0.0438824 152 92 93
0.214725 0.294716 0.119412 0.0784699 0.9963 -0.03505 164 44 32
-0.062879 0.342245 0.0496137 0.175267 0.98449 0.00775484 38 44 94
0.06797 -0.548871 0.000786631 0.150681 -0.0843774 -0.984975 183 59 88
-0.968981 -0.42933 -0.207452 -0.278601 0.815529 -0.507242 144 20 31
-0.537271 -0.449281 -0.135718 0.204141 -0.0869724 -0.975071 163 71 91
-0.0205278 -0.450581 -0.0305013 0.320959 -0.0800008 -0.943708 192 120 153
-0.883463 -0.313343 -0.222901 0.185764 -0.0338308 -0.982012 191 146 160
-0.52425 -0.233714 -0.155162 0.162723 0.000732284 -0.986671 12 38 140
-0.306996 -0.236004 -0.107216 0.214797 -0.0388956 -0.975884 38 76 157
-0.523743 -0.205751 -0.157851 0.203546 -0.128049 -0.970656 13 38 141
-0.306982 -0.186643 -0.110427 0.247107 -0.0548636 -0.967434 69 125 197
0.597776 -0.303889 0.110724 0.280926 0.0225298 -0.959465 176 58 93
-0.106538 -0.150676 -0.0688314 0.22228 -0.0556304 -0.973394 169 112 136
-0.63471 -0.0416218 -0.196155 0.00460161 -0.0306443 -0.99952 18 44 144
-0.483509 -0.0668629 -0.152263 0.255565 -0.0561469 -0.965161 195 190 205
-0.7554 -0.0144793 -0.211056 0.341069 -0.0304961 -0.939543 119 42 46
-0.348496 -0.312894 -0.107708 0.147289 0.00498278 -0.989081 96 102 159
-0.380418 -0.0499617 -0.135479 0.223306 -0.0340087 -0.974155 77 142 206
-0.213782 -0.0556196 -0.114673 0.0390953 0.0598263 -0.997443 12 40 143
-0.421044 -0.0282809 -0.143754 0.160939 -0.0525503 -0.985564 77 143 206
-0.870714 0.0559745 -0.248765 0.441666 -0.199399 -0.87474 37 125 55
-0.540543 -0.0100347 -0.17238 0.262406 -0.16695 -0.950406 13 38 142
0.656212 -0.192252 0.113785 0.230436 0.0312176 -0.972587 175 50 76
-0.748057 0.12707 -0.222484 0.209184 -0.0277615 -0.977482 53 86 53
-0.679094 0.125641 -0.202739 0.152585 0.158472 -0.975502 47 71 50
-0.171929 0.0572944 -0.0971436 0.170417 0.0156579 -0.985248 115 114 168
0.333179 -0.00100266 0.0236063 0.252127 -0.061674 -0.965727 181 132 160
0.717587 -0.00766739 0.109492 0.484251 0.0434859 -0.873848 185 170 183
-0.774206 0.238288 -0.233361 0.177615 0.0675848 -0.981777 192 141 148
-0.455316 0.188715 -0.165089 0.2097 0.0106456 -0.977707 196 153 180
-0.222308 0.150084 -0.115814 -0.030483 -0.0907102 -0.995411 197 152 179
0.411274 0.130452 0.0372383 0.172079 0.045786 -0.984019 195 184 197
-0.454608 0.293299 -0.165708 0.343073 0.0520584 -0.937865 168 45 47
0.594649 0.154298 0.0869814 0.324674 -0.0078391 -0.945794 183 29 29
-0.455118 0.312445 -0.164804 0.242659 0.0083766 -0.970076 172 50 50
0.36661 0.235694 0.037213 0.0892757 0.429158 -0.898807 206 114 153
-0.172622 0.318187 -0.0926252 0.303155 0.208167 -0.929926 121 122 112
-0.102769 0.329307 -0.0637811 0.168306 0.78093 -0.601516 177 42 46
0.321857 0.269961 0.0532954 0.252815 0.959384 0.125172 167 41 33
-0.247701 0.364891 -0.049731 0.377441 0.924265 -0.0572147 166 42 31
-0.410543 0.395586 -0.0901459 0.139397 0.988729 -0.0546189 162 41 30
0.421462 0.254107 0.155269 0.166786 0.982893 0.0781289 175 133 125
0.285009 0.278896 0.134468 0.220589 0.973507 0.0602028 175 128 121
0.571001 0.226181 0.209461 0.127359 0.988654 -0.079642 169 105 96
0.0410465 0.3227 0.0638903 0.17192 0.984875 -0.0215246 125 123 146
-0.290978 0.380365 -0.00452729 0.173108 0.984572 -0.0255185 169 70 58
-0.45308 0.406716 -0.0449538 0.163032 0.985548 -0.0459828 161 51 40
-0.379019 0.395403 -0.027993 0.163004 0.986018 -0.0346316 161 51 40
0.134073 -0.438402 0.00400325 0.250081 -0.0292183 -0.967784 182 91 127
-0.124139 -0.397394 -0.0574205 0.229402 -0.0211871 -0.973101 170 141 174
-0.145724 -0.382843 -0.0643368 0.296915 0.143622 -0.944042 178 154 185
-0.0400694 -0.374994 -0.0381811 0.197664 -0.0118145 -0.980199 168 134 168
-0.455982 -0.315685 -0.133893 0.191935 -0.050717 -0.980096 123 142 192
-0.892566 -0.149035 -0.250903 0.139328 0.243183 -0.959922 146 20 36
-0.783427 -0.208638 -0.201792 0.400065 0.0724343 -0.913619 45 116 54
-0.762905 -0.201775 -0.191744 0.515992 0.128772 -0.846859 34 130 56
-0.444028 -0.159318 -0.137466 0.285376 -0.0534607 -0.956924 78 143 204
0.639116 -0.335614 0.114812 0.222826 -0.0774552 -0.971776 176 59 96
0.334313 -0.213119 0.0415779 0.235927 -0.0802692 -0.96845 8 35 135
0.473211 -0.227176 0.0655183 0.330234 -0.0826494 -0.940274 11 34 133
-0.444456 -0.0662745 -0.142496 0.293478 -0.0495916 -0.954678 78 143 204
-0.38108 -0.0710628 -0.135446 0.229441 0.0743088 -0.970482 76 142 205
0.255285 -0.0905307 0.0110479 0.261601 -0.0817866 -0.961705 189 105 145
0.106903 -0.0262935 -0.0297955 0.290583 -0.103877 -0.951195 187 155 185
0.31416 -0.0336045 0.0203896 0.237525 -0.0459581 -0.970294 153 147 187
0.14418 -0.00331808 -0.0224682 0.236269 -0.0287853 -0.971261 108 107 161
0.372118 0.00200804 0.0330619 0.218112 -0.0468494 -0.974799 181 89 111
0.433672 0.24601 0.0631487 0.248629 0.941157 -0.228929 166 44 44
0.476071 0.241342 0.105582 -0.359385 0.796296 -0.486575 156 41 29
-0.199252 0.366328 0.0630343 0.179608 0.979549 -0.0906977 128 103 114
0.18626 -0.606438 0.0511677 0.567445 0.0257129 -0.823011 177 51 72
-0.0603977 -0.362425 -0.0430559 0.196135 -0.00345314 -0.980571 184 151 178
-0.339272 -0.14602 -0.144375 0.888531 0.116128 -0.443878 80 144 206
0.492279 -0.305392 0.074582 0.257831 -0.0515262 -0.964815 11 32 128
-0.427356 -0.127502 -0.130484 0.389169 -0.0570432 -0.919398 75 142 205
-0.184221 -0.157971 -0.0852562 0.093737 -0.135553 -0.986326 11 38 143
-0.0615997 -0.054265 -0.0685946 0.117834 -0.157282 -0.980499 198 169 190
0.255754 -0.0435122 0.00577068 0.243491 -0.0256491 -0.969564 160 130 171
-0.456374 0.122305 -0.160431 0.235732 -0.0285838 -0.971397 133 127 173
0.64902 0.000915288 0.10019 0.374727 -0.0812047 -0.923573 186 181 194
-0.177198 0.165049 -0.103622 0.370028 0.0422655 -0.928058 199 136 168
0.378922 0.153081 0.027781 0.239163 0.0617272 -0.969015 198 172 184
-0.0612063 0.27219 -0.0739461 0.423114 0.0690611 -0.90344 190 41 46
0.454294 0.242625 0.091053 0.19632 0.976412 -0.0898763 163 43 33
0.159702 0.303009 0.137441 0.147889 0.986539 -0.0697798 98 81 103
0.706023 -0.276899 0.125452 0.483221 0.0471988 -0.874225 178 58 90
-0.043091 -8.03248e-05 -0.0670269 0.318883 -0.0125926 -0.947711 194 157 184
-0.386087 0.214149 -0.150154 0.292863 -0.0112424 -0.956088 188 101 107
-0.0440379 0.283543 -0.0682729 0.480218 0.0157202 -0.877008 187 36 38
-0.257142 0.356099 -0.100791 0.264175 0.743417 -0.614445 171 54 56
-0.384455 0.101004 -0.143999 0.271013 -0.0313634 -0.962064 106 104 160
0.539245 0.0365915 0.0764507 0.333297 0.133675 -0.933297 193 187 201
0.544065 0.122045 0.0633958 0.174544 0.169966 -0.969869 190 153 167
0.122611 0.305994 0.0412716 0.182974 0.981327 -0.0593242 99 92 116
