ply
format ascii 1.0
element vertex 157
property float x
property float y
property float z
property float nx
property float ny
property float nz
property uchar diffuse_red
property uchar diffuse_green
property uchar diffuse_blue
end_header
-0.465513 -0.276296 -0.132237 0.443957 -0.123981 -0.887429 149 171 203
0.358577 -0.42079 0.0523666 0.235666 -0.0309626 -0.97134 43 56 134
-0.673352 0.190971 -0.205974 0.264884 0.0764251 -0.961246 194 110 114
0.573244 -0.445052 0.10471 0.143249 0.00342857 -0.98968 170 90 120
-0.160692 0.0898258 -0.0957263 0.216274 -0.0527583 -0.974906 185 158 189
0.292252 -0.183339 0.0277623 0.267573 -0.0375865 -0.962805 34 58 152
0.633748 -0.405235 0.120669 0.321989 0.0251737 -0.946409 168 65 98
-0.297369 0.185331 -0.129793 0.32076 -0.00062327 -0.94716 178 172 178
-0.0427397 0.0645637 -0.0679065 0.247553 -0.031631 -0.968358 188 153 182
-0.00737035 0.0426415 -0.0586347 0.21733 -0.0032965 -0.976093 179 164 195
0.161956 -0.0141001 -0.0183556 0.223865 -0.0558584 -0.973018 161 155 190
0.216623 -0.0247095 -0.00525188 0.214175 -0.0423489 -0.975877 188 140 168
0.312856 -0.0799622 0.0236813 0.231593 -0.0921665 -0.968437 177 92 130
0.390984 -0.0812552 0.042942 0.193547 -0.0763016 -0.978119 182 100 130
0.599244 -0.205112 0.099968 0.308092 -0.041264 -0.950461 176 160 181
-0.42398 0.382076 -0.145816 0.395886 0.234784 -0.887779 185 73 74
0.37234 -0.0692993 0.0389375 0.266323 -0.0650068 -0.961689 180 138 172
0.467545 -0.0317862 0.0586727 0.218317 0.0316515 -0.975365 156 137 174
0.541409 -0.0750019 0.0774062 0.232982 0.0277655 -0.972085 100 99 159
0.593872 -0.0739721 0.084613 0.288217 0.0584667 -0.955779 136 128 173
-0.17135 0.334984 -0.0884041 0.303335 0.38576 -0.871308 178 138 147
0.645269 -0.0844203 0.107829 0.374359 0.0712315 -0.924544 185 170 182
-0.63689 0.43906 -0.0705721 0.245323 0.908025 -0.33957 169 95 86
-0.550067 0.424201 -0.0675614 0.16361 0.985791 -0.0380588 158 47 34
-0.507717 0.416891 -0.0636371 0.181341 0.98312 0.0242711 162 52 41
-0.424019 0.403122 -0.0379171 0.156013 0.986507 -0.0496458 162 46 33
-0.116584 0.348553 -0.0372449 0.125578 0.991608 -0.0307155 123 111 127
-0.314207 0.383211 -0.0357642 0.164211 0.98642 0.00322729 170 83 73
-0.408812 0.399953 -0.0332887 0.146358 0.98821 -0.0449427 162 47 35
-0.212055 0.363975 -0.0285335 0.141221 0.986809 -0.0791387 159 75 70
-0.434843 0.405597 -0.0268597 0.232135 0.972531 -0.0172237 170 75 63
-0.338657 0.388964 -0.0172184 0.188848 0.982001 0.00338407 164 54 42
-0.243652 0.371537 0.00900016 0.190969 0.976224 -0.102552 160 46 34
-0.149947 0.354979 -0.0258593 0.145459 0.988109 -0.0498277 53 54 96
-0.221843 0.365535 -0.0145016 0.0987269 0.989636 -0.104279 161 84 80
0.0222964 0.320036 0.00172213 0.0534588 0.967581 -0.24684 151 85 84
-0.00375387 0.327423 0.00696392 0.185865 0.972155 -0.142722 145 52 44
-0.318418 0.38528 0.00361081 0.12382 0.992125 -0.01888 170 82 71
-0.286125 0.380368 0.0113884 0.172497 0.983977 -0.0450958 173 83 72
0.075085 0.315789 0.0273481 0.183454 0.982753 -0.0232434 153 56 48
-0.23851 0.372893 0.0239751 0.303512 0.950648 -0.0643993 155 60 52
0.0910772 0.312205 0.0319929 0.161033 0.984404 -0.0708325 156 58 49
-0.23389 0.373759 0.0395869 0.329484 0.937642 -0.110761 151 61 54
-0.0516173 0.338298 0.0380605 0.115032 0.993249 -0.0150278 48 48 95
0.0730172 0.317124 0.0717141 0.165276 0.986142 -0.0143534 50 54 98
0.116052 0.30816 0.0697179 0.224562 0.971739 -0.0727642 54 55 99
0.0296627 0.325019 0.0760494 0.1951 0.980748 -0.00838956 102 102 131
0.310295 0.270948 0.0831391 0.107435 0.97685 -0.184993 164 56 45
-0.114563 0.349503 0.0853989 0.0606182 0.996763 -0.0528123 152 48 38
-0.0226357 0.335238 0.092456 0.207157 0.977044 -0.0496978 159 88 85
-0.0180961 0.334384 0.110068 0.183887 0.982685 -0.022715 153 61 54
0.0139421 0.327659 0.118351 0.143178 0.987911 0.0594306 152 87 86
0.101572 0.312823 0.108962 0.180955 0.981812 -0.0574474 48 50 94
-0.00206198 0.331234 0.114015 0.210893 0.97715 -0.0264745 152 84 82
0.123258 0.310029 0.129409 0.13216 0.988033 -0.0795295 152 120 125
0.45779 0.246453 0.150666 0.260674 0.963299 0.0640625 161 49 37
0.491625 0.238623 0.192084 0.113458 0.991951 0.056202 179 143 136
-0.798423 -0.309226 -0.199798 0.324707 -0.0644321 -0.943618 195 176 188
0.162996 -0.372734 0.00677837 0.28673 -0.0778309 -0.954845 184 101 137
0.234072 -0.172098 0.010342 0.322052 -0.0385536 -0.945937 72 83 150
-0.0247491 0.0112484 -0.0631419 0.237963 0.0206058 -0.971055 131 119 168
0.0357999 -0.00352095 -0.0496084 0.299069 0.0920239 -0.949783 193 157 185
0.254492 -0.138063 0.0157296 0.307862 -0.0306538 -0.950937 189 177 194
-0.717815 0.414169 -0.219706 0.11067 0.167967 -0.979561 176 62 60
0.144105 0.0184783 -0.0227733 0.244572 -0.0350947 -0.968996 115 112 165
0.0135505 0.0975448 -0.0581608 0.225525 -0.0376513 -0.97351 191 75 107
0.21658 -0.00340128 -0.00490832 0.217675 0.000943636 -0.976021 188 156 184
0.180626 0.0387399 -0.0115362 0.236173 0.10039 -0.966511 195 138 169
0.42809 -0.106417 0.0509204 0.134314 -0.0387928 -0.990179 179 56 83
-0.212338 0.279289 -0.110419 0.139717 0.107159 -0.984376 73 101 80
0.332878 -0.0453798 0.0252073 0.164595 -0.0361211 -0.9857 144 138 181
-0.168875 0.303286 -0.0965005 0.297295 0.0640639 -0.952634 190 163 173
0.391382 -0.0312443 0.0395345 0.227915 -0.0237423 -0.973392 107 102 155
-0.197898 0.320006 -0.102076 0.266388 0.0894182 -0.959709 97 107 91
-0.129078 0.285773 -0.0858864 0.290766 0.0365614 -0.956095 193 62 72
0.363093 0.0403074 0.0277245 0.267103 -0.0403848 -0.962822 185 59 82
-0.185326 0.342474 -0.0889166 0.240401 0.488397 -0.838855 180 135 143
0.41996 0.023101 0.0434016 0.205674 -0.0602365 -0.976765 182 44 56
0.437032 0.0122398 0.0481982 0.223894 -0.0447454 -0.973586 183 48 65
0.289059 0.104379 0.00738688 0.26354 -0.0376196 -0.963914 196 161 173
0.454512 0.0247979 0.0509719 0.230806 -0.0387746 -0.972227 180 71 83
-0.181772 0.354936 -0.0628811 0.138013 0.975422 -0.171766 158 43 34
0.75781 -0.053938 0.126253 0.387683 0.0841275 -0.917946 182 125 136
0.410853 0.171165 0.0381237 0.206563 0.0699361 -0.975931 201 169 182
0.0480586 0.321404 -0.0112133 0.201283 0.976774 0.0734705 160 50 42
-0.147868 0.353838 0.0363221 0.224798 0.974276 0.015896 97 129 152
0.032582 0.323571 0.0316968 0.17559 0.984122 -0.0259459 44 47 96
0.063713 0.317812 0.0398461 0.188085 0.981941 -0.0203709 117 93 113
0.150242 0.300713 0.0445401 0.234188 0.969757 -0.0687666 142 132 146
0.0959326 0.31198 0.0482628 0.219371 0.975282 -0.0264736 159 117 117
0.465237 0.247974 0.0495175 0.310104 0.878071 -0.364453 177 47 54
0.46307 0.226593 0.067092 0.221139 0.950642 0.217664 183 50 58
0.171183 0.299063 0.0670001 0.190225 0.981285 -0.0299025 40 44 97
0.536384 0.208844 0.0835695 0.235535 0.185102 -0.954076 193 97 133
0.00450399 0.329647 0.0846682 0.170094 0.984319 -0.0467313 45 47 94
0.0628012 0.319324 0.0771755 0.211181 0.97701 -0.0292024 38 45 95
0.210408 0.292353 0.106798 0.230924 0.972863 0.0145613 161 44 32
0.290454 0.277396 0.10627 0.284096 0.957519 -0.0494872 170 122 114
0.540517 0.229321 0.202534 0.164464 0.985047 0.0513335 176 128 119
0.583541 0.224882 0.223769 0.188304 0.980622 0.0540615 176 106 98
0.507023 -0.682714 0.138679 0.659449 0.394255 -0.640071 170 56 71
-0.521877 0.00349087 -0.169532 0.274589 -0.0244748 -0.96125 13 37 140
-0.670645 0.126676 -0.203822 0.168674 0.19213 -0.966765 55 77 53
-0.422024 -0.00646818 -0.14375 0.208454 0.00281284 -0.978028 70 127 198
-0.777378 0.221571 -0.230702 0.355063 0.022543 -0.93457 194 148 156
-0.508415 0.219131 -0.177633 0.285363 -0.0716096 -0.95574 166 38 39
-0.4548 0.211502 -0.165639 0.235352 0.0959776 -0.967159 196 165 187
0.293261 -0.16122 0.0278241 0.303848 -0.0256716 -0.952375 22 46 143
-0.159415 0.13488 -0.0980695 0.306334 0.0112793 -0.951857 199 136 171
0.576474 -0.264224 0.0967533 0.221019 -0.0590671 -0.973479 177 58 92
0.371576 -0.0921579 0.0405538 0.244177 -0.10186 -0.964366 169 68 99
0.6422 -0.151472 0.105468 0.132895 -0.040668 -0.990295 177 55 84
-0.102769 0.329307 -0.0637811 0.168306 0.78093 -0.601516 177 42 46
-0.208241 0.360707 -0.0686589 0.269674 0.951473 -0.148244 157 41 32
0.577656 -0.00824285 0.0865693 0.274583 -0.00650739 -0.961542 188 177 189
0.743329 -0.0420462 0.117708 0.39948 0.105511 -0.91065 184 157 170
-0.112212 0.346962 -0.0193734 0.179465 0.983026 -0.0381141 93 121 149
0.0967302 0.308666 0.00480588 0.183304 0.982097 -0.0434265 164 44 34
-0.184056 0.362707 0.00827921 0.141699 0.989722 -0.0193003 36 43 95
0.787469 -0.0170185 0.142195 0.614276 -0.210971 -0.760366 167 28 30
-0.00969767 0.330674 0.0347039 0.120467 0.990416 -0.067551 113 100 119
-0.162144 0.358876 0.0700591 0.21743 0.975529 -0.0326629 113 107 122
0.024944 0.325617 0.0596564 0.197409 0.980066 -0.0223752 42 47 96
0.447731 0.241255 0.068927 0.118554 0.98668 -0.111387 165 41 39
0.353226 0.266715 0.121468 0.17197 0.984929 0.0184308 174 126 119
0.414174 0.257298 0.169359 0.143439 0.989617 0.00919775 172 116 108
-0.787556 -0.0224207 -0.236327 0.615369 0.180008 -0.767411 31 128 55
-0.203858 -0.202702 -0.0831351 0.312248 -0.0555068 -0.948378 14 39 139
-0.509058 0.239992 -0.17713 0.302728 -0.0469268 -0.951921 161 34 35
-0.207256 0.168027 -0.115604 0.164817 0.197655 -0.966317 201 151 181
0.125355 -0.0151988 -0.0258925 0.170846 -0.0181464 -0.985131 162 151 189
-0.26241 0.224522 -0.11915 0.214813 0.0644595 -0.974526 67 91 74
0.234009 -0.0152055 -0.000720341 0.236826 -0.029412 -0.971107 143 123 168
0.579861 -0.192668 0.0942009 0.21291 0.0117122 -0.977001 76 77 137
0.391981 0.0136806 0.0371502 0.23442 -0.0686882 -0.969706 182 49 65
0.656656 -0.170694 0.112364 0.27187 -0.100874 -0.957032 178 49 74
0.448964 0.00221185 0.051908 0.258086 -0.0766638 -0.963076 183 61 85
-0.307177 0.383117 -0.00864331 0.140933 0.989938 -0.0126626 163 58 46
0.687749 0.0840506 0.126483 0.724436 0.215455 -0.654806 184 32 37
0.0410465 0.3227 0.0638903 0.17192 0.984875 -0.0215246 125 123 146
0.434522 0.247779 0.0708242 0.416085 0.624801 -0.66068 165 43 35
0.285009 0.278896 0.134468 0.220589 0.973507 0.0602028 175 128 121
0.150307 -0.505843 0.0158789 0.305792 0.0610213 -0.950141 185 80 119
0.66889 -0.521932 0.153807 0.567637 -0.135001 -0.812135 168 87 122
0.331999 -0.184828 0.0360932 0.324009 0.0138849 -0.945952 12 36 137
-0.0618299 0.0740822 -0.0716246 0.206465 0.0554197 -0.976883 193 160 188
0.448709 -0.020087 0.0527229 0.227143 -0.0543026 -0.972347 164 124 161
0.581469 0.0235664 0.0843975 0.211274 -0.0657971 -0.97521 190 185 197
0.686888 -0.015915 0.105334 0.337253 0.0349707 -0.940765 185 180 193
0.27182 0.272522 0.0491729 0.308802 0.950402 -0.0371065 163 40 31
0.02525 0.324486 0.106714 0.145093 0.988918 0.0314454 86 80 109
-0.195403 -0.140932 -0.0858955 0.21355 -0.0339858 -0.976341 14 39 142
-0.403536 0.203481 -0.154785 0.349148 0.10839 -0.930778 198 145 163
-0.00707135 -0.0203165 -0.0581847 0.249658 -0.0274998 -0.967944 196 154 181
0.129335 0.184267 -0.0317922 0.193713 -0.0230359 -0.980788 190 45 58
0.374203 0.173296 0.0278061 0.0330296 0.468592 -0.882797 188 108 125
0.205041 0.296819 0.0852502 0.0432291 0.990485 -0.130654 152 85 85
