ply
format ascii 1.0
element vertex 309
property float x
property float y
property float z
property float nx
property float ny
property float nz
property uchar diffuse_red
property uchar diffuse_green
property uchar diffuse_blue
end_header
0.293591 -0.461142 0.0358695 0.283047 -0.0229448 -0.958832 179 103 129
0.358577 -0.42079 0.0523666 0.235666 -0.0309626 -0.97134 43 56 134
0.1523 -0.418078 0.00368534 0.112363 -0.0502465 -0.992397 181 68 105
0.411088 -0.338288 0.0626196 0.203165 -0.0525004 -0.977736 121 123 168
0.15328 -0.395395 0.0047604 0.161248 -0.0675098 -0.984602 186 81 121
0.162996 -0.372734 0.00677837 0.28673 -0.0778309 -0.954845 184 101 137
-0.01826 -0.396827 -0.0338947 0.297946 -0.0919242 -0.950147 194 159 181
0.197903 -0.34605 0.00970273 0.168123 -0.0136977 -0.98567 182 150 175
0.411332 -0.290761 0.0630702 -0.0347189 -0.0499343 -0.998149 104 108 161
-0.144616 -0.408821 -0.0634599 0.221883 0.0567074 -0.973423 193 157 180
0.162084 -0.318905 0.0026129 0.28865 -0.0853813 -0.95362 83 89 160
-0.36634 -0.461458 -0.0954255 0.180202 -0.133706 -0.9745 194 162 168
0.515501 -0.228745 0.0831731 0.172839 -0.0566696 -0.983319 37 54 133
0.411746 -0.241896 0.0606444 -0.0522676 -0.0283725 -0.99823 85 93 154
0.390715 -0.254807 0.0622975 0.0232758 -0.0329257 -0.999187 160 161 192
0.271615 -0.242718 0.0254299 0.263275 -0.0483933 -0.963506 100 105 162
0.152039 -0.259202 -0.00486353 0.209219 -0.0886812 -0.973839 63 77 159
-0.0812014 -0.32679 -0.0481308 0.193118 -0.115502 -0.974354 193 172 190
-0.189623 -0.332095 -0.077378 0.20068 -0.0896365 -0.975548 188 173 193
0.272926 -0.219585 0.0247102 0.276385 -0.0474147 -0.959877 81 88 153
0.600732 -0.132604 0.0960437 0.234545 -0.104595 -0.966462 170 56 85
0.0916111 -0.239949 -0.0208904 0.306691 -0.095001 -0.947056 31 49 134
-0.415044 -0.393932 -0.119513 0.196497 -0.172949 -0.965132 171 120 136
-0.00628496 0.0656947 -0.0604565 0.223352 -0.0613753 -0.972804 193 128 159
0.131331 -0.246116 -0.00963136 0.121289 -0.0789408 -0.989473 100 104 160
-0.00551978 -0.263483 -0.0392043 0.25147 -0.0254572 -0.967531 77 86 147
0.541423 -0.09729 0.078302 0.231412 -0.0556336 -0.971264 158 109 141
-0.584706 -0.419503 -0.150349 0.219971 -0.0768378 -0.972476 199 138 148
-0.285501 -0.327666 -0.0961858 0.220065 -0.0853038 -0.971748 168 161 190
-0.207939 -0.318435 -0.082557 0.168049 -0.0676233 -0.983457 196 183 196
0.350213 -0.153281 0.0426425 0.137994 -0.0092738 -0.990389 21 41 134
0.645269 -0.0844203 0.107829 0.374359 0.0712315 -0.924544 185 170 182
-0.0395832 -0.232539 -0.0485343 0.249022 -0.0683869 -0.96608 185 156 173
0.132707 -0.194689 -0.0102591 0.250218 -0.0619567 -0.966205 87 93 153
0.48568 -0.0877726 0.0645379 0.237934 -0.0658892 -0.969043 166 114 145
-0.54026 -0.385308 -0.144929 0.134845 -0.107609 -0.985006 70 123 80
0.408728 -0.118015 0.0488901 0.131128 -0.00576606 -0.991349 158 48 70
0.523313 -0.0860477 0.073404 0.206323 -0.0768548 -0.975461 144 122 160
-0.289802 -0.303269 -0.0994424 0.191012 -0.11552 -0.974767 184 163 178
-0.227331 -0.283594 -0.0869378 0.254211 -0.00367038 -0.967142 194 187 200
0.447692 -0.0886453 0.0558943 0.249496 -0.0488077 -0.967145 178 96 121
0.0163062 -0.197432 -0.0387834 0.229655 -0.0615765 -0.971323 39 60 149
0.254492 -0.138063 0.0157296 0.307862 -0.0306538 -0.950937 189 177 194
-0.707674 -0.406828 -0.177183 0.20566 -0.0574667 -0.976935 183 123 136
-0.434733 -0.328953 -0.128477 0.228484 -0.0503043 -0.972247 84 92 154
-0.143723 -0.23462 -0.0730528 0.269838 -0.0297128 -0.962447 17 39 139
0.113177 -0.133787 -0.0206556 0.19105 -0.100769 -0.976394 178 176 206
-0.0408226 -0.178162 -0.0522786 0.232603 -0.150374 -0.960876 192 160 182
0.0169548 -0.173038 -0.0396888 0.231452 -0.0600841 -0.970989 28 51 146
-0.519243 -0.309399 -0.151777 0.37852 -0.0783101 -0.922274 85 92 152
-0.729072 -0.36465 -0.187331 0.185129 -0.121896 -0.975125 182 99 110
-0.59378 -0.341003 -0.158366 0.250811 -0.056493 -0.966387 52 126 69
-0.203858 -0.202702 -0.0831351 0.312248 -0.0555068 -0.948378 14 39 139
-0.0805756 -0.160935 -0.0616566 0.246673 -0.0395444 -0.968291 199 166 187
0.236205 -0.0790295 0.00463279 0.245384 -0.0735075 -0.966635 183 95 134
0.0716705 -0.112643 -0.0324582 0.244375 -0.0515289 -0.968311 13 38 140
0.711018 0.0534415 0.115508 0.310556 0.0756354 -0.947541 166 41 49
-0.518577 -0.258636 -0.147526 0.263598 -0.0442821 -0.963616 13 38 139
-0.106538 -0.150676 -0.0688314 0.22228 -0.0556304 -0.973394 169 112 136
0.437032 0.0122398 0.0481982 0.223894 -0.0447454 -0.973586 183 48 65
0.216446 -0.0435768 -0.00363159 0.223648 -0.0711388 -0.972071 188 112 147
-0.106201 -0.127207 -0.0702013 0.203748 -0.0538486 -0.977542 172 116 139
0.15468 -0.043096 -0.0184075 0.233824 -0.0615331 -0.970329 187 125 157
0.417244 0.024685 0.0419608 0.238501 -0.070812 -0.968557 182 44 56
-0.221749 -0.164586 -0.0916575 0.20089 -0.0566068 -0.977977 52 70 155
0.381276 0.0289744 0.0340308 0.215083 -0.165111 -0.962537 181 47 64
0.363093 0.0403074 0.0277245 0.267103 -0.0403848 -0.962822 185 59 82
-0.221046 -0.140399 -0.0934897 0.208322 -0.062363 -0.97607 38 59 149
0.0534149 -0.0385725 -0.0411625 0.227628 -0.171421 -0.958541 176 116 144
0.180075 -0.00361373 -0.0136364 0.227989 -0.00931474 -0.973619 84 85 150
-0.798423 -0.309226 -0.199798 0.324707 -0.0644321 -0.943618 195 176 188
-0.221481 -0.117445 -0.0941317 0.228532 -0.0503046 -0.972236 31 54 148
0.216691 0.0181882 -0.00501118 0.249708 -0.0317534 -0.9678 191 157 185
0.270452 0.0275078 0.0089168 0.240325 -0.00371416 -0.970686 193 116 154
-0.324438 -0.12685 -0.121135 0.273873 -0.0282634 -0.961351 76 139 205
-0.699309 -0.236793 -0.190982 0.297977 -0.0276645 -0.954172 34 130 57
-0.848943 -0.272206 -0.232705 0.0896794 0.0609824 -0.994102 196 147 156
-0.678697 -0.223182 -0.187096 0.291122 -0.0328383 -0.956122 107 152 121
-0.156821 -0.0481923 -0.0896415 0.471387 0.00268339 -0.881923 49 62 145
0.0357999 -0.00352095 -0.0496084 0.299069 0.0920239 -0.949783 193 157 185
0.180626 0.0387399 -0.0115362 0.236173 0.10039 -0.966511 195 138 169
-0.787253 -0.235399 -0.200226 0.206414 0.0789875 -0.975271 112 42 35
0.307017 0.0934965 0.0125929 0.247934 -0.0131095 -0.968689 196 172 183
0.108108 0.0613757 -0.0327441 0.206809 -0.0357558 -0.977728 196 125 162
-0.620474 -0.165007 -0.174135 0.300323 -0.036989 -0.95312 12 36 137
-0.0250724 0.032148 -0.0625298 0.226916 0.00956791 -0.973867 108 106 164
-0.0801354 0.0424847 -0.0761591 0.231591 0.00785443 -0.972782 190 170 194
0.0484324 0.0754433 -0.048854 0.220414 -0.0843256 -0.971754 195 112 151
-0.227079 0.0464771 -0.109159 0.203837 0.000369189 -0.979005 164 154 187
-0.657715 -0.0895011 -0.191714 0.204098 -0.0511892 -0.977611 42 61 151
-0.323349 0.00913639 -0.126045 0.208468 -0.0927342 -0.973622 183 129 151
-0.262528 0.046062 -0.118156 0.276849 0.0317174 -0.96039 186 172 194
-0.422024 -0.00646818 -0.14375 0.208454 0.00281284 -0.978028 70 127 198
-0.478051 0.0122696 -0.156739 0.294213 -0.0527475 -0.954283 177 179 208
-0.182127 0.096322 -0.0963538 0.235722 0.0743671 -0.968971 197 162 189
-0.52092 0.0259635 -0.170082 0.284571 -0.0122424 -0.958577 14 37 140
-0.260393 0.139033 -0.131175 0.104725 0.141528 -0.984379 193 171 188
-0.244862 0.120746 -0.113855 0.289789 -0.0372766 -0.956365 196 166 187
-0.421634 0.0789495 -0.151835 0.259871 -0.056875 -0.963967 134 102 149
-0.384455 0.101004 -0.143999 0.271013 -0.0313634 -0.962064 106 104 160
-0.902171 -0.0519627 -0.253333 -0.427661 -0.16945 -0.887915 45 134 75
-0.512416 0.0810446 -0.171209 0.182056 -0.0568618 -0.981643 173 123 147
-0.209108 0.202814 -0.107318 0.212004 0.131845 -0.968334 158 156 161
-0.403228 0.133458 -0.148152 0.230903 0.0167169 -0.972833 193 162 186
-0.634761 0.0821496 -0.197793 0.181588 -0.0129641 -0.983289 186 174 184
-0.729185 0.0703272 -0.216219 0.166055 -0.0394727 -0.985326 186 164 176
0.210312 0.290829 0.0600691 0.234701 0.967426 -0.0948734 154 59 51
0.243226 0.284307 0.0839284 0.166091 0.969835 -0.178422 161 44 33
-0.519064 0.176139 -0.192813 0.031514 0.467623 -0.883367 186 160 180
-0.543173 0.132332 -0.181141 0.182095 -0.0139822 -0.983182 146 143 189
-0.314549 0.216366 -0.135055 0.274759 -0.0184559 -0.961336 176 87 86
0.0862149 0.31018 0.0183516 0.220067 0.966705 -0.130579 156 44 34
-0.594635 0.154105 -0.191892 0.207071 -0.0337746 -0.977743 128 113 159
-0.40293 0.243556 -0.152612 0.303848 -0.0025976 -0.952717 190 92 94
-0.454863 0.231741 -0.164804 0.248498 0.0241967 -0.96833 200 160 173
-0.72485 0.136416 -0.217948 0.281547 -0.128515 -0.950903 58 77 50
-0.454893 0.273086 -0.165425 0.314811 -0.00891994 -0.949112 157 41 44
-0.366039 0.284782 -0.143149 0.171038 0.115277 -0.978497 181 83 82
-0.0553597 0.336263 -0.019568 0.143308 0.986881 -0.0743586 134 36 29
-0.803091 0.161317 -0.234271 0.216758 -0.0726211 -0.97352 148 96 84
-0.686662 0.204582 -0.213097 0.172526 0.0256524 -0.98467 191 113 117
-0.00969767 0.330674 0.0347039 0.120467 0.990416 -0.067551 113 100 119
-0.116584 0.348553 -0.0372449 0.125578 0.991608 -0.0307155 123 111 127
-0.126724 0.350606 -0.0238781 0.129062 0.990912 -0.0379194 123 138 156
-0.257142 0.356099 -0.100791 0.264175 0.743417 -0.614445 171 54 56
-0.694137 0.437686 -0.202067 0.435067 0.842847 -0.316741 162 45 45
-0.742515 0.43782 -0.220399 0.155589 0.759659 -0.631435 184 71 72
-0.836295 0.43223 -0.244198 -0.464715 0.166818 -0.869605 163 36 31
0.633647 -0.604187 0.13734 0.282248 -0.00494563 -0.959328 169 55 86
0.535019 -0.49492 0.0965823 0.130956 0.185398 -0.973898 180 142 166
0.573244 -0.445052 0.10471 0.143249 0.00342857 -0.98968 170 90 120
0.595526 -0.432123 0.108895 0.211174 -0.0556951 -0.97586 176 132 154
0.377166 -0.389431 0.0602508 0.0933333 -0.0850279 -0.991998 165 161 186
0.231787 -0.427839 0.0253769 0.197532 0.0532821 -0.978847 184 79 116
0.514179 -0.352244 0.0891801 0.109149 -0.0544632 -0.992533 16 37 126
0.109204 -0.417568 -0.0036194 0.050383 -0.00672009 -0.998707 182 162 184
0.180975 -0.360252 0.00589341 0.158058 -0.0602924 -0.985587 183 114 144
0.252184 -0.33211 0.025015 0.266106 -0.04005 -0.963111 186 163 179
0.352616 -0.314187 0.0482251 0.202923 -0.0276209 -0.978806 10 34 132
0.312274 -0.315331 0.0380517 0.283059 -0.0066815 -0.959079 25 42 129
0.141686 -0.357311 -0.00084865 0.205721 -0.0819382 -0.975174 176 115 143
0.637573 -0.179781 0.106885 0.177075 -0.0726135 -0.981515 171 48 73
0.179358 -0.27748 0.00288204 0.260524 -0.0534783 -0.963985 13 36 136
0.579758 -0.17008 0.0947403 0.198238 0.0191989 -0.979965 150 144 177
-0.388629 -0.45112 -0.101815 0.341858 -0.0409661 -0.938859 170 91 100
-0.125718 -0.350038 -0.0558706 0.240897 0.0209533 -0.970325 185 163 186
0.214559 -0.261578 0.014386 0.121969 -0.103499 -0.987123 12 37 137
-0.393538 -0.38331 -0.113161 0.244431 -0.0975184 -0.96475 183 144 162
0.390129 -0.15092 0.0451795 0.138703 -0.0349796 -0.989717 184 173 195
-0.637939 -0.392232 -0.164873 0.180112 -0.0560308 -0.982049 200 142 152
0.197552 -0.151954 0.00110945 0.212753 -0.0572401 -0.975428 14 39 140
-0.752978 -0.410006 -0.184772 0.209966 -0.0971273 -0.972872 196 131 143
0.275172 -0.0781089 0.0142102 0.281856 -0.117073 -0.952287 191 113 154
-0.774407 -0.369647 -0.19476 0.22329 -0.0802629 -0.971442 186 119 127
-0.638107 -0.340182 -0.168038 0.190771 -0.108683 -0.9756 177 125 136
-0.823487 -0.395757 -0.20184 0.188398 -0.0693208 -0.979643 194 131 143
0.0547636 -0.0993768 -0.0404198 0.222409 0.0899124 -0.970799 16 39 139
0.333179 -0.00100266 0.0236063 0.252127 -0.061674 -0.965727 181 132 160
-0.28707 -0.174769 -0.106267 0.218702 -0.0571208 -0.974119 59 73 145
0.398366 0.0351772 0.0378181 0.200653 -0.172988 -0.964269 179 48 62
-0.331299 -0.143398 -0.128644 0.414058 0.093023 -0.905485 78 145 207
-0.306212 -0.116596 -0.113876 0.287964 -0.0464482 -0.956514 28 54 139
-0.342336 -0.112907 -0.129926 0.333992 -0.00502046 -0.942563 77 143 206
0.0110798 -0.0322058 -0.0515309 0.244399 -0.0841757 -0.966015 196 153 180
-0.171889 -0.0656188 -0.0917945 0.266051 -0.0931263 -0.95945 15 40 143
-0.284308 -0.0831683 -0.110895 0.213187 -0.0605657 -0.975132 195 182 195
0.344864 0.0952253 0.0200368 0.177646 -0.0705775 -0.98156 194 171 185
0.159146 0.057553 -0.0197192 0.19553 -0.0752498 -0.977806 196 128 164
0.342265 0.11355 0.0205352 0.201884 -0.0850302 -0.975711 196 180 191
-0.0613839 0.00948702 -0.0708241 0.196692 0.0118804 -0.980393 196 151 180
0.411035 0.150834 0.0380869 0.172866 0.115293 -0.978175 198 176 188
-0.698536 -0.163003 -0.195284 0.246776 -0.0376014 -0.968342 127 162 139
-0.32519 -0.0821867 -0.120106 0.212514 -0.0430431 -0.976209 30 59 144
-0.362754 -0.0586687 -0.131425 0.277818 0.012725 -0.96055 74 135 203
0.52298 0.199956 0.0795335 0.22662 0.162317 -0.960363 197 103 141
-0.246156 0.011481 -0.109161 0.184007 -0.109272 -0.976832 197 174 190
-0.657491 -0.065451 -0.193202 0.188967 -0.054886 -0.980448 26 47 140
-0.208449 0.0787624 -0.10555 0.202359 -0.0299237 -0.978854 141 139 188
0.371782 0.241385 0.04087 0.291841 0.427302 -0.855711 202 110 149
-0.616296 0.0700492 -0.192552 0.211029 -0.0543588 -0.975967 122 108 109
-0.316264 0.0441022 -0.127401 0.183034 -0.0616022 -0.981175 197 175 192
-0.618321 0.0394822 -0.191271 0.254506 -0.111648 -0.960605 193 184 199
-0.382781 0.0399909 -0.140242 0.217249 -0.101359 -0.97084 167 103 124
-0.281094 0.0779649 -0.121838 0.253049 -0.0235126 -0.967168 152 149 190
-0.244995 0.0780215 -0.112992 0.220408 -0.0177983 -0.975245 89 88 150
-0.281121 0.0994524 -0.123121 0.219091 -0.0827761 -0.972187 128 122 169
-0.455478 0.0705729 -0.157531 0.218722 -0.0865675 -0.97194 170 117 141
-0.315438 0.152888 -0.132495 0.242645 -0.0800847 -0.966803 197 165 186
-0.63526 0.0592605 -0.196585 0.232338 -0.0699806 -0.970115 189 161 178
-0.47398 0.103674 -0.164087 0.232127 0.0103547 -0.97263 133 126 180
-0.797438 0.0299537 -0.226937 0.161386 -0.0691524 -0.984466 131 163 138
-0.596176 0.104484 -0.191313 0.206247 -0.0746827 -0.975646 119 128 133
-0.490248 0.169497 -0.170953 0.251245 -0.116215 -0.960922 197 167 186
-0.561341 0.16572 -0.186558 0.182824 -0.0746511 -0.980308 179 118 128
0.122611 0.305994 0.0412716 0.182974 0.981327 -0.0593242 99 92 116
-0.65139 0.142799 -0.203872 0.136333 -0.0437222 -0.989697 58 73 51
-0.348381 0.252688 -0.139419 0.0357536 -0.0725353 -0.996725 197 149 157
-0.212338 0.279289 -0.110419 0.139717 0.107159 -0.984376 73 101 80
-0.748057 0.12707 -0.222484 0.209184 -0.0277615 -0.977482 53 86 53
0.0362055 0.322921 0.0479801 0.167438 0.985601 -0.0235642 63 66 107
-0.0971409 0.344834 -0.0162997 0.204177 0.97869 -0.0218568 101 106 129
-0.882357 0.16274 -0.248944 -0.61684 0.0679337 -0.784151 82 105 63
-0.859482 0.197693 -0.249622 0.283772 -0.108194 -0.952769 140 156 139
-0.873903 0.272162 -0.243602 -0.577809 0.208808 -0.78901 159 36 29
-0.290978 0.380365 -0.00452729 0.173108 0.984572 -0.0255185 169 70 58
-0.442578 0.405307 -0.056021 0.193826 0.980794 -0.0217499 169 74 64
-0.497663 0.415262 -0.0582962 0.1416 0.989145 -0.0392707 162 54 42
-0.031282 -0.528339 -0.022688 0.0967024 -0.0861972 -0.991574 184 74 108
-0.20593 -0.518215 -0.0568748 0.171026 -0.1214 -0.977758 167 112 124
0.25078 -0.388993 0.0284718 0.245315 -0.0585147 -0.967676 186 134 160
0.55536 -0.302643 0.0959157 0.246457 -0.0616484 -0.967191 151 50 77
-0.282787 -0.510142 -0.0742508 0.331525 -0.0722208 -0.940678 126 146 123
-0.13687 -0.451025 -0.0537977 0.167809 -0.14691 -0.974812 193 147 175
0.59914 -0.22699 0.0985607 0.240711 -0.000158624 -0.970597 172 72 100
0.452607 -0.218052 0.0635061 0.257572 -0.0745398 -0.96338 11 35 132
0.701021 -0.138979 0.114759 -0.271383 -0.137746 -0.952563 176 54 82
-0.387334 -0.424088 -0.103984 0.218788 -0.131 -0.966939 182 120 130
-0.331285 -0.380934 -0.0990158 0.235402 -0.131015 -0.963027 195 185 197
0.331039 -0.163717 0.039133 0.12556 0.184549 -0.97477 14 37 138
-0.651921 -0.443864 -0.158456 0.152201 -0.186872 -0.970523 171 89 109
-0.480765 -0.382908 -0.130733 0.226446 -0.0742794 -0.971188 72 133 88
-0.614984 -0.378574 -0.162015 0.216917 -0.144591 -0.965423 176 105 115
-0.246199 -0.270532 -0.0926609 0.192114 0.0480526 -0.980195 196 187 199
0.179625 -0.141777 -0.00379999 0.164328 -0.0295851 -0.985962 14 38 140
-0.061669 -0.195403 -0.0549933 0.258597 -0.0377257 -0.965248 198 153 178
-0.107054 -0.174491 -0.067207 0.197229 -0.0673349 -0.978042 166 105 129
0.0351002 -0.11024 -0.0442151 0.162497 -0.056052 -0.985115 13 38 139
-0.702906 -0.329494 -0.183005 0.208171 -0.107072 -0.972214 172 104 114
0.0928256 -0.0556203 -0.0312372 0.200985 -0.175056 -0.963826 175 125 150
-0.52425 -0.233714 -0.155162 0.162723 0.000732284 -0.986671 12 38 140
0.126495 -0.0364745 -0.0249564 0.24152 -0.0671775 -0.968067 190 139 169
0.401369 0.0344723 0.0384814 0.204088 -0.057274 -0.977276 181 49 61
0.0349525 -0.0269149 -0.0461816 0.216102 -0.0673694 -0.974044 194 147 175
-0.32485 -0.105 -0.120119 0.282269 -0.0184534 -0.959158 62 115 189
-0.0435274 -0.0244549 -0.0611458 0.179171 -0.16371 -0.970101 195 154 181
-0.719781 -0.226581 -0.195433 0.300687 -0.135327 -0.944073 30 128 55
0.19687 0.0482555 -0.00681446 0.273129 0.0525324 -0.960542 196 123 157
0.411274 0.130452 0.0372383 0.172079 0.045786 -0.984019 195 184 197
-0.324767 -0.0599125 -0.120777 0.211231 -0.0512491 -0.976092 107 113 169
-0.133238 0.0314622 -0.0877141 0.231346 -0.00862119 -0.972833 156 147 185
-0.264649 0.0232186 -0.11469 0.214338 -0.106358 -0.970952 198 179 195
-0.483585 -0.0442009 -0.153162 0.253563 -0.0526287 -0.965886 192 189 205
-0.463985 -0.0324239 -0.148881 0.255753 -0.0575399 -0.965029 126 160 201
0.459226 0.244387 0.105417 0.101395 0.976162 -0.191904 157 43 33
-0.540431 0.0124052 -0.172997 0.163808 -0.137526 -0.976859 13 38 142
-0.366028 0.0908275 -0.139763 0.17872 -0.0176787 -0.983741 173 168 199
-0.73659 -0.025876 -0.204051 0.323318 -0.0470007 -0.945122 167 60 91
-0.40278 0.0901467 -0.147806 0.247779 -0.072164 -0.966125 152 147 187
-0.225365 0.149582 -0.113937 0.181332 0.00100113 -0.983422 197 154 182
0.0537529 0.27221 -0.0452265 0.220408 0.156896 -0.962707 196 54 69
-0.158745 0.307727 -0.0895275 0.34555 0.137278 -0.928304 182 137 145
-0.526881 0.229024 -0.181563 0.302962 -0.0508748 -0.951644 160 32 33
-0.0675654 0.334148 -0.0376239 0.328739 0.927301 -0.179006 157 41 33
-0.103272 0.344982 0.0134101 0.188146 0.981578 -0.033237 78 119 154
0.613529 -0.651009 0.136413 0.175079 -0.0653235 -0.982385 169 60 89
0.614803 -0.465197 0.112602 -0.00428411 0.0122066 -0.999916 176 93 125
0.224451 -0.533754 0.0342042 0.158057 -0.0730985 -0.984721 184 101 115
0.0567939 -0.520279 -0.0125582 0.129068 -0.086484 -0.987858 184 65 96
-0.00911334 -0.524049 -0.0103316 0.199762 0.129392 -0.971263 186 84 119
-0.145724 -0.382843 -0.0643368 0.296915 0.143622 -0.944042 178 154 185
-0.103879 -0.362359 -0.0513163 0.23367 0.0675982 -0.969964 174 150 178
-0.316429 -0.403206 -0.0930204 0.159799 -0.109435 -0.981064 193 179 193
0.0459703 -0.291868 -0.0290567 0.21563 -0.130989 -0.96765 13 38 138
0.448703 -0.175787 0.0578032 0.175824 -0.027309 -0.984043 16 36 130
-0.368976 -0.280738 -0.101408 -0.0548314 0.224191 -0.973001 73 139 203
0.0172171 -0.1206 -0.0487073 0.155637 0.112403 -0.981398 22 45 146
0.372118 0.00200804 0.0330619 0.218112 -0.0468494 -0.974799 181 89 111
0.391981 0.0136806 0.0371502 0.23442 -0.0686882 -0.969706 182 49 65
0.429788 -0.00870629 0.0465407 0.195299 -0.0680407 -0.978381 182 106 134
-0.95365 -0.37075 -0.222349 -0.386266 0.127735 -0.9135 144 19 32
-0.860949 -0.30004 -0.219556 0.145438 -0.0782675 -0.986266 191 146 157
0.107595 -0.00365539 -0.0311428 0.232058 -0.0191602 -0.972513 130 123 168
0.612267 0.173873 0.0896291 0.0365509 0.0523967 -0.997957 186 33 37
0.156695 0.074349 -0.0149026 0.230019 0.0541038 -0.971681 200 122 163
-0.443861 -0.0882983 -0.14217 0.247239 -0.0609008 -0.967039 80 144 204
-0.305242 -0.00371766 -0.11808 0.232758 -0.0483579 -0.971331 194 160 179
0.146197 0.193251 -0.0275127 0.166725 0.0547896 -0.98448 191 45 57
-0.560818 -6.2599e-05 -0.197103 -0.441453 -0.140316 -0.886244 11 37 141
-0.754577 -0.0376804 -0.210782 0.380389 0.0304606 -0.924325 80 66 42
-0.193699 0.150449 -0.105192 0.263113 -0.193009 -0.945261 194 137 168
-0.691851 0.0403393 -0.216436 0.0548697 0.00711998 -0.998468 206 162 185
-0.0816297 0.222191 -0.0818868 0.188902 -0.0356173 -0.98135 190 50 65
-0.593499 0.130422 -0.192099 0.217566 -0.029642 -0.975596 154 150 193
-0.455316 0.188715 -0.165089 0.2097 0.0106456 -0.977707 196 153 180
-0.278517 0.239112 -0.126231 0.23346 -0.0871613 -0.968452 124 79 74
-0.694116 0.121178 -0.211662 0.236789 -0.170417 -0.956499 46 74 50
-0.20161 0.358772 -0.0393008 0.0287901 0.975113 -0.21983 152 59 51
-0.179496 0.360636 0.025931 0.175341 0.98396 -0.0328523 38 44 92
-0.0400694 -0.374994 -0.0381811 0.197664 -0.0118145 -0.980199 168 134 168
-0.247033 -0.352879 -0.08485 0.251395 0.0131139 -0.967796 113 109 158
0.604384 -0.0122701 0.081147 0.0661972 -0.174144 -0.982493 187 177 189
-0.658911 -0.304306 -0.173828 0.199814 -0.110871 -0.973541 173 156 156
-0.184221 -0.157971 -0.0852562 0.093737 -0.135553 -0.986326 11 38 143
0.21658 -0.00340128 -0.00490832 0.217675 0.000943636 -0.976021 188 156 184
-0.474298 0.13349 -0.165859 0.248476 -0.100256 -0.963436 147 141 183
-0.817832 0.0858073 -0.234158 0.241435 0.0180357 -0.970249 90 145 102
-0.0252673 0.334026 0.0306311 0.177742 0.982976 -0.0465461 98 89 115
-0.54481 0.28014 -0.186486 0.320295 -0.0371759 -0.946588 167 39 39
-0.773736 0.259668 -0.234066 0.183046 -0.00178901 -0.983103 189 119 125
-0.216577 0.366549 0.000765493 0.112866 0.991581 -0.0634785 112 95 117
0.432107 -0.279919 0.0640623 0.242707 -0.0560193 -0.968481 53 71 154
0.110989 -0.233598 -0.0141031 0.212697 -0.0622308 -0.975134 181 179 202
-0.373111 -0.285302 -0.123522 0.229343 -0.175204 -0.957447 87 140 200
0.519261 0.108157 0.0656682 0.219534 0.0405846 -0.97476 194 171 184
-0.315802 0.0879088 -0.129274 0.238753 -0.0270139 -0.970705 193 176 197
-0.80219 0.184782 -0.237019 0.144927 -0.0826081 -0.985988 184 105 108
0.16312 -0.34315 -0.000249574 0.11971 -0.0468825 -0.991702 173 149 178
0.44754 0.110494 0.0448756 0.206288 0.140899 -0.968294 195 188 202
-0.280431 0.154472 -0.125106 0.225157 0.0333234 -0.973752 127 131 127
