ply
format ascii 1.0
element vertex 97
property float x
property float y
property float z
property float nx
property float ny
property float nz
property uchar diffuse_red
property uchar diffuse_green
property uchar diffuse_blue
end_header
0.1523 -0.418078 0.00368534 0.112363 -0.0502465 -0.992397 181 68 105
0.389928 -0.106087 0.045572 0.117019 -0.0269535 -0.992764 161 66 90
0.308863 0.229835 0.0379996 -0.466298 0.883202 0.0502064 193 60 68
-0.542341 -0.332437 -0.151962 0.141001 -0.0997381 -0.984973 167 178 182
-0.197702 0.109267 -0.105211 0.193963 -0.0452455 -0.979965 196 157 182
-0.364845 0.00570805 -0.133132 0.232201 -0.0574677 -0.970968 197 180 197
-0.404122 -0.0201079 -0.138098 0.170137 -0.028723 -0.985001 72 130 199
-0.2255 0.195689 -0.11334 0.135621 0.115003 -0.984063 176 170 178
-0.43767 0.0148295 -0.149795 0.180862 -0.0244379 -0.983205 46 82 161
-0.678339 -0.200449 -0.187615 0.280683 -0.0438045 -0.958801 169 182 180
-0.804328 -0.269443 -0.208334 0.131876 -0.0800933 -0.988026 175 109 129
-0.657715 -0.0895011 -0.191714 0.204098 -0.0511892 -0.977611 42 61 151
-0.228675 0.307258 -0.108599 0.0553951 0.158763 -0.985762 172 74 75
-0.493596 0.0695565 -0.165725 0.217427 -0.0797159 -0.972816 190 160 179
-0.539429 0.0796957 -0.176436 0.196804 -0.093119 -0.97601 177 128 150
-0.530442 0.11436 -0.176655 0.217271 -0.078827 -0.972923 89 85 145
-0.519064 0.176139 -0.192813 0.031514 0.467623 -0.883367 186 160 180
-0.615721 0.0930409 -0.194186 0.181753 -0.0312605 -0.982847 90 117 91
-0.654339 0.0479121 -0.20011 0.2171 -0.083635 -0.97256 119 125 114
-0.653617 0.0938907 -0.202183 0.200051 -0.0328727 -0.979234 167 172 171
-0.749799 0.0353666 -0.217937 0.189568 -0.0537541 -0.980395 170 70 92
-0.729185 0.0703272 -0.216219 0.166055 -0.0394727 -0.985326 186 164 176
-0.787525 0.0814311 -0.228664 0.166436 -0.0656689 -0.983863 61 105 64
-0.784179 0.149646 -0.230128 0.151878 -0.0446931 -0.987389 125 85 64
-0.919165 0.0368423 -0.231164 -0.788236 0.0470555 -0.613571 156 38 29
-0.822356 0.172709 -0.239377 0.159151 -0.0479996 -0.986087 177 141 138
-0.942847 -0.00521746 -0.196306 -0.970812 0.118525 -0.208509 157 35 25
-0.911306 0.0855018 -0.236244 -0.865005 0.184513 -0.466606 153 37 27
-0.859482 0.197693 -0.249622 0.283772 -0.108194 -0.952769 140 156 139
-0.995332 -0.180632 -0.0952733 -0.985435 0.129364 -0.110371 156 38 30
-0.899013 0.139187 -0.238318 -0.648965 0.0870582 -0.755821 139 48 33
-0.955992 -0.0361945 -0.159875 -0.955056 0.118999 -0.27149 157 36 27
-0.887356 0.191329 -0.244702 -0.832952 0.100369 -0.544165 133 45 33
-0.84351 0.273251 -0.249151 -0.462613 -0.030423 -0.886038 191 87 87
-0.942789 0.0318055 -0.165506 -0.968645 0.111795 -0.221877 160 35 26
-0.912788 0.145543 -0.206932 -0.95993 0.169979 -0.222803 157 36 27
-0.948679 0.0435924 -0.135563 -0.954451 0.205718 -0.216112 166 84 72
-0.934876 0.0952371 -0.15186 -0.967539 0.120461 -0.222162 168 81 70
-0.951177 0.0757036 -0.10485 -0.991001 0.0733365 -0.111972 158 33 25
-0.916291 0.193248 -0.15571 -0.919475 0.120547 -0.374212 164 71 61
-0.923559 0.201036 -0.125172 -0.963256 0.187783 -0.192029 158 61 50
-0.903253 0.306158 -0.143408 -0.917903 0.117734 -0.378936 166 86 74
0.411332 -0.290761 0.0630702 -0.0347189 -0.0499343 -0.998149 104 108 161
0.331039 -0.163717 0.039133 0.12556 0.184549 -0.97477 14 37 138
0.411035 0.150834 0.0380869 0.172866 0.115293 -0.978175 198 176 188
-0.267064 -0.364839 -0.0901403 0.208687 0.0196799 -0.977785 150 142 178
0.333305 0.229272 0.0264727 -0.0649518 0.606901 -0.792119 201 99 136
0.292054 0.233255 0.0276941 -0.231665 0.844873 -0.482203 189 51 58
-0.39852 -0.0366631 -0.142769 0.295386 0.0470925 -0.954217 75 142 206
-0.242668 0.185992 -0.117897 0.162401 0.0322547 -0.986198 189 177 189
-0.437395 0.0375243 -0.150749 0.199432 -0.0229964 -0.979642 165 163 194
-0.229509 0.266235 -0.111255 0.162268 0.111164 -0.980465 71 95 76
-0.421046 0.122573 -0.152065 0.197294 -0.01851 -0.98017 158 146 181
-0.883254 -0.287338 -0.224257 0.158805 -0.0581284 -0.985597 193 149 162
-0.85951 -0.246744 -0.22446 0.0945346 -0.0409176 -0.99468 173 94 114
-0.4548 0.211502 -0.165639 0.235352 0.0959776 -0.967159 196 165 187
-0.63526 0.0592605 -0.196585 0.232338 -0.0699806 -0.970115 189 161 178
-0.594635 0.154105 -0.191892 0.207071 -0.0337746 -0.977743 128 113 159
-0.65139 0.142799 -0.203872 0.136333 -0.0437222 -0.989697 58 73 51
-0.797438 0.0299537 -0.226937 0.161386 -0.0691524 -0.984466 131 163 138
-0.854416 0.086084 -0.242159 0.188092 0.0274255 -0.981769 46 130 65
-0.785555 0.19441 -0.234693 0.141367 -0.0609034 -0.988082 192 130 135
-0.931644 0.0312506 -0.207681 -0.957575 0.157291 -0.241476 154 49 40
-0.966005 -0.0567656 -0.136282 -0.949178 0.189302 -0.251448 159 52 42
-0.93536 0.0746332 -0.170396 -0.970572 0.0794279 -0.227337 159 34 25
-0.937724 0.100727 -0.136397 -0.920809 0.212203 -0.327232 163 76 65
-0.836295 0.43223 -0.244198 -0.464715 0.166818 -0.869605 163 36 31
-0.912373 0.27297 -0.127273 -0.952678 0.151097 -0.263767 157 34 25
0.200627 -0.269637 0.0263716 -0.234218 -0.0205601 -0.971967 12 37 136
0.0172171 -0.1206 -0.0487073 0.155637 0.112403 -0.981398 22 45 146
-0.183377 -0.212239 -0.081362 0.19923 -0.0167533 -0.97981 13 39 140
-0.246199 -0.270532 -0.0926609 0.192114 0.0480526 -0.980195 196 187 199
-0.213782 -0.0556196 -0.114673 0.0390953 0.0598263 -0.997443 12 40 143
-0.171929 0.0572944 -0.0971436 0.170417 0.0156579 -0.985248 115 114 168
-0.22467 0.176138 -0.116276 0.0261825 0.18338 -0.982694 199 167 189
-0.638225 -0.0969185 -0.191567 0.0980608 -0.105169 -0.989608 16 39 136
-0.540431 0.0124052 -0.172997 0.163808 -0.137526 -0.976859 13 38 142
-0.348381 0.252688 -0.139419 0.0357536 -0.0725353 -0.996725 197 149 157
-0.544411 0.235015 -0.201774 -0.087575 0.396459 -0.913866 176 55 61
-0.902171 -0.0519627 -0.253333 -0.427661 -0.16945 -0.887915 45 134 75
-0.805286 0.115347 -0.2314 0.184296 0.0374383 -0.982158 135 161 142
0.16312 -0.34315 -0.000249574 0.11971 -0.0468825 -0.991702 173 149 178
-0.36997 -0.274089 -0.109252 0.0689435 0.0751896 -0.994783 75 141 204
-0.616118 -0.354326 -0.161094 0.187828 -0.101527 -0.976941 138 125 120
-0.0830375 0.241135 -0.0802304 0.186963 0.0586365 -0.980615 192 51 64
-0.455316 0.188715 -0.165089 0.2097 0.0106456 -0.977707 196 153 180
-0.558469 0.10411 -0.182741 0.212239 -0.0576913 -0.975513 159 141 174
-0.691851 0.0403393 -0.216436 0.0548697 0.00711998 -0.998468 206 162 185
-0.770105 -0.0209471 -0.221369 0.193406 -0.0323056 -0.980587 46 120 57
-0.980216 -0.106878 -0.107491 -0.945468 0.117038 -0.303962 159 34 25
-0.879184 0.264852 -0.205436 -0.679211 -0.275419 -0.680306 162 36 27
-0.933472 0.132466 -0.108735 -0.893341 0.445689 -0.057472 157 33 25
-0.392723 -0.33234 -0.116169 0.0446205 -0.171481 -0.984177 96 99 157
-0.774206 0.238288 -0.233361 0.177615 0.0675848 -0.981777 192 141 148
-0.328678 -0.29833 -0.107196 0.155301 -0.0251965 -0.987546 117 121 173
-0.262452 0.110394 -0.119743 0.208958 -0.0586111 -0.976167 188 172 194
-0.765754 0.183297 -0.23015 0.205002 -0.101773 -0.973456 188 106 107
