ply
format ascii 1.0
element vertex 183
property float x
property float y
property float z
property float nx
property float ny
property float nz
property uchar diffuse_red
property uchar diffuse_green
property uchar diffuse_blue
end_header
-0.773119 -0.289452 -0.216668 0.256649 0.270647 -0.927837 184 137 147
-0.465513 -0.276296 -0.132237 0.443957 -0.123981 -0.887429 149 171 203
0.00456694 -0.403568 -0.0294517 0.410674 -0.00642708 -0.91176 188 163 188
-0.00500319 -0.282416 -0.0441827 0.766311 0.402108 -0.501074 125 133 183
0.00844011 -0.270564 -0.0331529 0.467906 -0.143491 -0.872052 73 87 163
0.0253665 -0.390967 -0.0234535 0.298903 -0.041097 -0.953398 105 104 157
-0.384455 0.101004 -0.143999 0.271013 -0.0313634 -0.962064 106 104 160
-0.4391 0.181124 -0.160772 0.293502 -0.0527282 -0.954503 197 146 176
-0.176055 0.00648556 -0.0944352 0.233594 -0.0135953 -0.972239 182 129 152
0.272598 -0.243159 0.0255327 0.2602 -0.0502964 -0.964244 92 97 157
-0.0621599 0.0529062 -0.0720532 0.207505 -0.00465305 -0.978223 191 161 188
0.27266 -0.219735 0.0246241 0.275556 -0.047978 -0.960087 83 90 154
0.291803 -0.230128 0.0295345 0.246609 -0.0498792 -0.967831 59 76 160
-0.2255 0.195689 -0.11334 0.135621 0.115003 -0.984063 176 170 178
0.0357999 -0.00352095 -0.0496084 0.299069 0.0920239 -0.949783 193 157 185
0.272994 -0.19587 0.0235715 0.284418 -0.0371279 -0.957982 70 79 149
-0.262428 0.20333 -0.119447 0.206031 -0.00686963 -0.978521 78 104 86
0.29213 -0.206791 0.0287611 0.275384 -0.0463488 -0.960217 49 69 158
0.432863 -0.326455 0.062615 0.331378 -0.0710962 -0.940816 70 81 157
0.254492 -0.138063 0.0157296 0.307862 -0.0306538 -0.950937 189 177 194
0.28704 -0.152126 0.0237273 0.162222 -0.000705655 -0.986754 31 51 141
-0.264119 0.287067 -0.119831 0.29413 0.0307746 -0.955269 190 98 101
0.0135505 0.0975448 -0.0581608 0.225525 -0.0376513 -0.97351 191 75 107
-0.229509 0.266235 -0.111255 0.162268 0.111164 -0.980465 71 95 76
0.144105 0.0184783 -0.0227733 0.244572 -0.0350947 -0.968996 115 112 165
0.216623 -0.0247095 -0.00525188 0.214175 -0.0423489 -0.975877 188 140 168
0.55559 -0.276844 0.0928631 0.22329 -0.0497068 -0.973483 153 50 75
0.576216 -0.288863 0.0980977 0.222346 -0.0556317 -0.973379 176 58 93
0.275541 -0.0548426 0.012535 0.284525 -0.0618056 -0.956675 189 137 170
-0.168875 0.303286 -0.0965005 0.297295 0.0640639 -0.952634 190 163 173
0.234371 0.0277206 -0.000158786 0.223712 0.0206658 -0.974436 193 135 169
0.53577 -0.239983 0.0863941 0.190583 -0.0398374 -0.980862 181 163 184
-0.197898 0.320006 -0.102076 0.266388 0.0894182 -0.959709 97 107 91
-0.17135 0.334984 -0.0884041 0.303335 0.38576 -0.871308 178 138 147
0.351559 -0.0124169 0.0292534 0.245404 -0.016083 -0.969288 145 125 165
0.504228 -0.076348 0.0689226 0.233636 -0.0608709 -0.970417 137 128 167
-0.181772 0.354936 -0.0628811 0.138013 0.975422 -0.171766 158 43 34
0.485773 -0.0653011 0.0637324 0.267193 -0.00881223 -0.963603 93 90 147
0.289059 0.104379 0.00738688 0.26354 -0.0376196 -0.963914 196 161 173
0.466915 -0.0063717 0.0551759 0.299375 -0.073201 -0.951323 184 83 115
-0.20161 0.358772 -0.0393008 0.0287901 0.975113 -0.21983 152 59 51
0.578025 -0.0288039 0.0906294 0.204273 0.0590523 -0.977132 188 174 186
-0.0661205 0.3395 -0.00899598 0.135834 0.990396 -0.0257794 148 47 39
-0.00375387 0.327423 0.00696392 0.185865 0.972155 -0.142722 145 52 44
-0.23389 0.373759 0.0395869 0.329484 0.937642 -0.110761 151 61 54
0.0862149 0.31018 0.0183516 0.220067 0.966705 -0.130579 156 44 34
-0.147868 0.353838 0.0363221 0.224798 0.974276 0.015896 97 129 152
0.032582 0.323571 0.0316968 0.17559 0.984122 -0.0259459 44 47 96
0.150242 0.300713 0.0445401 0.234188 0.969757 -0.0687666 142 132 146
0.397947 0.221931 0.0469282 0.326431 0.332901 -0.884658 200 95 127
-0.0749082 0.343683 0.0641973 0.174997 0.982993 -0.0556778 46 48 93
0.0959326 0.31198 0.0482628 0.219371 0.975282 -0.0264736 159 117 117
0.0628012 0.319324 0.0771755 0.211181 0.97701 -0.0292024 38 45 95
0.0456145 0.322094 0.0803847 0.198741 0.979933 -0.015265 67 69 109
0.171183 0.299063 0.0670001 0.190225 0.981285 -0.0299025 40 44 97
0.610591 0.124475 0.09077 0.251352 0.034522 -0.96728 171 45 52
0.00450399 0.329647 0.0846682 0.170094 0.984319 -0.0467313 45 47 94
0.116052 0.30816 0.0697179 0.224562 0.971739 -0.0727642 54 55 99
0.536384 0.208844 0.0835695 0.235535 0.185102 -0.954076 193 97 133
-0.0180961 0.334384 0.110068 0.183887 0.982685 -0.022715 153 61 54
0.02525 0.324486 0.106714 0.145093 0.988918 0.0314454 86 80 109
0.101572 0.312823 0.108962 0.180955 0.981812 -0.0574474 48 50 94
0.198847 0.297189 0.116512 0.0701764 0.996794 -0.0384314 162 45 34
0.210401 0.291365 0.15249 0.181884 0.968982 0.167306 123 35 27
0.267412 0.283986 0.150767 0.109727 0.993446 -0.0320136 175 117 109
0.491625 0.238623 0.192084 0.113458 0.991951 0.056202 179 143 136
-0.754662 0.0105764 -0.215154 0.327957 -0.0513035 -0.943298 146 43 58
-0.521877 0.00349087 -0.169532 0.274589 -0.0244748 -0.96125 13 37 140
-0.150136 -0.195369 -0.0887184 0.585137 0.0206126 -0.810673 35 52 147
-0.0194267 -0.298857 -0.0504839 0.399371 -0.0341514 -0.916153 185 179 199
-0.777378 0.221571 -0.230702 0.355063 0.022543 -0.93457 194 148 156
-0.0603089 -0.244569 -0.0532332 0.307636 -0.043368 -0.950515 161 156 189
0.298937 -0.357662 0.0293842 0.495576 -0.147799 -0.855897 165 162 192
0.0172171 -0.1206 -0.0487073 0.155637 0.112403 -0.981398 22 45 146
-0.0428042 -0.0209311 -0.0681489 0.249016 0.00397682 -0.968491 197 157 183
-0.314784 0.174541 -0.134124 0.291654 0.0225119 -0.956259 193 176 191
0.450647 -0.414038 0.0759603 0.217446 -0.0241232 -0.975774 28 44 127
0.091502 -0.121726 -0.0295511 0.371425 -0.114911 -0.921324 19 39 131
0.216052 -0.187643 0.00784372 0.267246 -0.0570085 -0.961941 16 38 137
0.42886 -0.346215 0.0669559 0.259191 -0.0535498 -0.96434 65 79 151
-0.159415 0.13488 -0.0980695 0.306334 0.0112793 -0.951857 199 136 171
-0.0427397 0.0645637 -0.0679065 0.247553 -0.031631 -0.968358 188 153 182
-0.0070997 0.0214137 -0.058396 0.213702 0.0217551 -0.976656 119 117 167
0.15468 -0.043096 -0.0184075 0.233824 -0.0615331 -0.970329 187 125 157
0.0299218 0.106588 -0.0523266 0.179188 0.109948 -0.977651 192 70 101
0.448703 -0.175787 0.0578032 0.175824 -0.027309 -0.984043 16 36 130
0.252243 -0.0263239 0.00428324 0.269473 -0.0185488 -0.96283 131 126 175
0.294791 -0.0427045 0.0162002 0.235656 -0.0572123 -0.970151 131 118 159
-0.129078 0.285773 -0.0858864 0.290766 0.0365614 -0.956095 193 62 72
0.333001 -0.0233547 0.0247108 0.240855 -0.0231906 -0.970284 143 140 186
0.391382 -0.0312443 0.0395345 0.227915 -0.0237423 -0.973392 107 102 155
0.48568 -0.0877726 0.0645379 0.237934 -0.0658892 -0.969043 166 114 145
0.501219 -0.120707 0.070595 0.214142 -0.051533 -0.975442 160 62 83
0.363093 0.0403074 0.0277245 0.267103 -0.0403848 -0.962822 185 59 82
0.541423 -0.09729 0.078302 0.231412 -0.0556336 -0.971264 158 109 141
-0.195545 0.357209 -0.0666136 0.167379 0.968159 -0.18615 157 42 32
0.382671 0.0496348 0.0321507 0.177453 -0.0640503 -0.982042 184 78 95
0.401369 0.0344723 0.0384814 0.204088 -0.057274 -0.977276 181 49 61
0.448964 0.00221185 0.051908 0.258086 -0.0766638 -0.963076 183 61 85
0.41996 0.023101 0.0434016 0.205674 -0.0602365 -0.976765 182 44 56
0.504852 -0.0294478 0.0661246 0.233815 -0.0472357 -0.971133 165 129 167
0.454512 0.0247979 0.0509719 0.230806 -0.0387746 -0.972227 180 71 83
-0.112212 0.346962 -0.0193734 0.179465 0.983026 -0.0381141 93 121 149
0.411035 0.150834 0.0380869 0.172866 0.115293 -0.978175 198 176 188
0.0967302 0.308666 0.00480588 0.183304 0.982097 -0.0434265 164 44 34
-0.137099 0.353128 0.0216192 0.179317 0.983696 -0.0136716 88 125 152
-0.00969767 0.330674 0.0347039 0.120467 0.990416 -0.067551 113 100 119
-0.062879 0.342245 0.0496137 0.175267 0.98449 0.00775484 38 44 94
-0.0205633 0.333526 0.0465674 0.15883 0.987123 -0.0190022 153 94 93
-0.162144 0.358876 0.0700591 0.21743 0.975529 -0.0326629 113 107 122
0.787469 -0.0170185 0.142195 0.614276 -0.210971 -0.760366 167 28 30
0.214748 0.29187 0.0744046 0.169193 0.981088 -0.094015 163 86 81
0.112929 0.310013 0.0966949 0.166476 0.985958 -0.013111 51 55 99
0.0206191 0.327116 0.0881814 0.140393 0.989205 -0.0419865 77 77 112
0.291165 0.277951 0.105861 0.211219 0.976423 -0.0445517 171 123 116
0.353226 0.266715 0.121468 0.17197 0.984929 0.0184308 174 126 119
0.432752 0.252665 0.142626 0.135516 0.990694 -0.0126732 175 116 108
0.414174 0.257298 0.169359 0.143439 0.989617 0.00919775 172 116 108
-0.777606 -0.28679 -0.220043 0.402817 0.557187 -0.726141 186 142 152
-0.855782 -0.212247 -0.216315 0.367129 -0.0639341 -0.92797 143 20 32
-0.587725 -0.218889 -0.150199 0.545079 0.466702 -0.696476 23 56 150
0.0369436 -0.523301 -0.00135082 0.0441541 0.38689 -0.921069 184 76 110
-0.39921 -0.0582359 -0.143247 0.274 -0.00328038 -0.961724 76 142 205
-0.39852 -0.0366631 -0.142769 0.295386 0.0470925 -0.954217 75 142 206
-0.4548 0.211502 -0.165639 0.235352 0.0959776 -0.967159 196 165 187
-0.509058 0.239992 -0.17713 0.302728 -0.0469268 -0.951921 161 34 35
0.449836 -0.387978 0.0778596 0.280959 -0.0520574 -0.958307 33 50 134
-0.173491 0.138853 -0.100653 0.26473 -0.0155182 -0.964198 200 141 174
-0.316287 0.274386 -0.132671 0.274588 0.105247 -0.955784 193 124 132
-0.26241 0.224522 -0.11915 0.214813 0.0644595 -0.974526 67 91 74
0.452607 -0.218052 0.0635061 0.257572 -0.0745398 -0.96338 11 35 132
0.0470878 0.137754 -0.0497749 0.117822 0.0985499 -0.988133 190 52 72
0.579861 -0.192668 0.0942009 0.21291 0.0117122 -0.977001 76 77 137
0.372118 0.00200804 0.0330619 0.218112 -0.0468494 -0.974799 181 89 111
0.467221 -0.0767282 0.0593701 0.239503 -0.0548079 -0.969347 164 131 163
0.391981 0.0136806 0.0371502 0.23442 -0.0686882 -0.969706 182 49 65
-0.102769 0.329307 -0.0637811 0.168306 0.78093 -0.601516 177 42 46
-0.222116 0.362075 -0.0580292 0.0630726 0.991749 0.111605 168 43 32
0.429788 -0.00870629 0.0465407 0.195299 -0.0680407 -0.978381 182 106 134
0.559655 -0.0852893 0.0811969 0.234869 0.00942108 -0.971981 150 135 175
0.661193 -0.140704 0.107973 0.104499 0.0172108 -0.994376 178 59 90
0.593872 -0.0739721 0.084613 0.288217 0.0584667 -0.955779 136 128 173
-0.307177 0.383117 -0.00864331 0.140933 0.989938 -0.0126626 163 58 46
-0.184056 0.362707 0.00827921 0.141699 0.989722 -0.0193003 36 43 95
0.724927 -0.0444177 0.12465 0.288068 -0.0596288 -0.955752 184 175 189
0.36661 0.235694 0.037213 0.0892757 0.429158 -0.898807 206 114 153
0.0410465 0.3227 0.0638903 0.17192 0.984875 -0.0215246 125 123 146
0.285009 0.278896 0.134468 0.220589 0.973507 0.0602028 175 128 121
0.600535 0.205682 0.107289 0.440812 0.686968 -0.577719 166 41 44
-0.825789 -0.170169 -0.206889 0.460531 0.314931 -0.829898 40 119 53
-0.0841915 -0.373874 -0.0475913 0.239513 0.0654707 -0.968683 184 156 184
0.150307 -0.505843 0.0158789 0.305792 0.0610213 -0.950141 185 80 119
0.231964 -0.451898 0.0243058 0.219848 0.0458997 -0.974454 181 71 106
-0.50851 0.260613 -0.177286 0.303957 -0.0489121 -0.951429 154 32 33
-0.0790941 0.0638985 -0.0758613 0.250064 0.041623 -0.967334 122 114 157
-0.192041 0.197702 -0.111164 0.225775 0.114674 -0.967407 196 164 182
0.331999 -0.184828 0.0360932 0.324009 0.0138849 -0.945952 12 36 137
0.14418 -0.00331808 -0.0224682 0.236269 -0.0287853 -0.971261 108 107 161
0.473211 -0.227176 0.0655183 0.330234 -0.0826494 -0.940274 11 34 133
-0.0827868 0.306101 -0.0646663 0.339852 0.555816 -0.758662 189 42 47
0.448709 -0.020087 0.0527229 0.227143 -0.0543026 -0.972347 164 124 161
0.485795 -0.0430446 0.0632431 0.236786 0.0110355 -0.971499 98 93 148
-0.171305 0.356951 -0.0326076 0.145793 0.988435 -0.0416993 97 90 117
-0.0277233 0.332654 -0.0299345 0.322257 0.932672 0.162091 165 42 33
-0.1217 0.350321 0.0256418 0.195453 0.980674 0.00871565 74 122 157
0.284979 0.269973 0.0512557 0.757106 0.649872 -0.066766 163 42 32
0.433897 0.246518 0.0699432 0.419711 0.559132 -0.714992 165 43 36
-0.125718 -0.350038 -0.0558706 0.240897 0.0209533 -0.970325 185 163 186
-0.403536 0.203481 -0.154785 0.349148 0.10839 -0.930778 198 145 163
-0.0965305 0.0532606 -0.0800028 0.221526 -0.0177255 -0.974993 112 110 160
0.162501 0.007759 -0.0185177 0.245611 -0.0222656 -0.969112 162 159 195
0.110392 0.172595 -0.034112 0.23704 0.0454929 -0.970434 192 46 59
0.358228 0.181321 0.0289038 0.107618 0.313408 -0.943501 183 69 97
0.581469 0.0235664 0.0843975 0.211274 -0.0657971 -0.97521 190 185 197
0.679959 -0.0458482 0.110827 0.23216 -0.102949 -0.967214 185 180 193
-0.223202 0.368746 0.0285529 0.283172 0.95585 -0.0785181 127 103 118
-0.0226357 0.335238 0.092456 0.207157 0.977044 -0.0496978 159 88 85
0.00922316 0.328419 0.101844 0.168498 0.985701 -0.00141728 71 66 100
0.462323 0.246866 0.16492 0.264918 0.963136 -0.0467688 172 107 97
0.411274 0.130452 0.0372383 0.172079 0.045786 -0.984019 195 184 197
0.633709 0.0337837 0.0918955 0.36513 0.0786082 -0.927632 190 184 197
0.142182 0.299128 0.0175237 0.23096 0.957679 -0.171781 153 57 49
0.477088 0.136343 0.0568234 0.156517 -0.00580295 -0.987658 194 155 166
