ply
format ascii 1.0
element vertex 96
property float x
property float y
property float z
property float nx
property float ny
property float nz
property uchar diffuse_red
property uchar diffuse_green
property uchar diffuse_blue
end_header
-0.755673 -0.319944 -0.194465 0.118535 0.220602 -0.968135 188 145 156
0.465465 -0.163194 0.0596258 0.174527 0.255428 -0.950945 27 44 135
-0.519064 0.176139 -0.192813 0.031514 0.467623 -0.883367 186 160 180
-0.207258 0.190487 -0.114958 0.174183 0.159857 -0.971651 198 165 187
-0.4548 0.211502 -0.165639 0.235352 0.0959776 -0.967159 196 165 187
-0.22504 0.342095 -0.101392 0.131543 0.316334 -0.939483 193 86 88
0.45779 0.246453 0.150666 0.260674 0.963299 0.0640625 161 49 37
-0.211468 0.366313 -0.0896085 0.270548 0.427987 -0.86234 157 38 34
0.0910772 0.312205 0.0319929 0.161033 0.984404 -0.0708325 156 58 49
0.491625 0.238623 0.192084 0.113458 0.991951 0.056202 179 143 136
0.357828 0.266271 0.137515 0.160178 0.98599 -0.0465591 176 137 129
-0.0658477 0.33967 -0.00995802 0.128303 0.99155 -0.0191237 147 46 38
0.246628 0.283794 0.101457 0.129199 0.991135 -0.0309614 163 47 35
0.032582 0.323571 0.0316968 0.17559 0.984122 -0.0259459 44 47 96
0.116052 0.30816 0.0697179 0.224562 0.971739 -0.0727642 54 55 99
0.420086 0.254136 0.187755 0.0733232 0.997274 0.00830328 179 127 118
0.0683998 0.317381 0.0558871 0.192077 0.980778 -0.0343632 56 55 98
-0.75761 0.438937 -0.224166 0.246868 0.620946 -0.743964 182 70 72
0.210401 0.291365 0.15249 0.181884 0.968982 0.167306 123 35 27
-0.314207 0.383211 -0.0357642 0.164211 0.98642 0.00322729 170 83 73
0.00450399 0.329647 0.0846682 0.170094 0.984319 -0.0467313 45 47 94
-0.536765 0.417293 -0.106098 0.230232 0.936208 -0.265532 157 46 34
0.0303857 0.325966 0.120575 0.229416 0.973304 -0.00679611 150 89 89
-0.0700952 0.343437 0.0805511 0.202089 0.978649 -0.0374772 74 65 95
-0.338657 0.388964 -0.0172184 0.188848 0.982001 0.00338407 164 54 42
-0.158703 0.356644 0.0478113 0.142735 0.989628 0.0162445 120 139 156
-0.0339346 0.338113 0.104642 0.184143 0.981575 -0.0510136 159 46 35
-0.517731 0.417629 -0.0875425 0.147092 0.989122 -0.00113343 174 94 84
-0.379019 0.395403 -0.027993 0.163004 0.986018 -0.0346316 161 51 40
-0.424019 0.403122 -0.0379171 0.156013 0.986507 -0.0496458 162 46 33
-0.286125 0.380368 0.0113884 0.172497 0.983977 -0.0450958 173 83 72
-0.162144 0.358876 0.0700591 0.21743 0.975529 -0.0326629 113 107 122
-0.539089 0.422006 -0.0790669 0.158898 0.98715 -0.0169153 159 49 38
-0.229464 0.373162 0.0562353 0.30006 0.949837 -0.0881602 154 51 42
-0.581034 0.429594 -0.0753923 0.19254 0.980698 -0.0340538 159 49 37
-0.550067 0.424201 -0.0675614 0.16361 0.985791 -0.0380588 158 47 34
-0.478527 0.412894 -0.0384975 0.23614 0.971698 -0.00632957 170 84 73
-0.449391 0.408347 -0.0307985 0.191055 0.981579 -0.000845008 169 81 71
-0.611846 0.432578 -0.0800087 0.199721 0.963524 -0.178134 153 47 35
-0.63689 0.43906 -0.0705721 0.245323 0.908025 -0.33957 169 95 86
-0.5571 0.428623 -0.0413895 0.245408 0.944758 -0.217273 156 50 39
-0.616556 0.43961 -0.0559114 0.197915 0.95159 -0.235174 155 51 40
-0.794858 -0.289477 -0.222302 0.247051 0.522843 -0.815844 194 159 170
-0.577501 0.0193345 -0.185273 0.17872 0.121559 -0.976361 19 40 138
-0.241993 0.166209 -0.120307 -0.163735 0.0970957 -0.981715 197 172 191
0.546125 0.208489 0.0771942 -0.0146615 0.618355 -0.785762 201 99 130
-0.125209 0.259518 -0.0872939 0.195383 0.265507 -0.944103 197 66 86
-0.17135 0.334984 -0.0884041 0.303335 0.38576 -0.871308 178 138 147
0.0862149 0.31018 0.0183516 0.220067 0.966705 -0.130579 156 44 34
0.210312 0.290829 0.0600691 0.234701 0.967426 -0.0948734 154 59 51
-0.362572 0.372153 -0.134693 0.20955 0.873717 -0.438985 179 66 69
0.353226 0.266715 0.121468 0.17197 0.984929 0.0184308 174 126 119
0.337225 0.269191 0.117693 0.182278 0.983243 0.00297453 174 132 125
-0.00780673 0.324816 -0.00606476 0.214578 0.956319 -0.198518 136 38 30
-0.195545 0.357209 -0.0666136 0.167379 0.968159 -0.18615 157 42 32
0.290454 0.277396 0.10627 0.284096 0.957519 -0.0494872 170 122 114
-0.116584 0.348553 -0.0372449 0.125578 0.991608 -0.0307155 123 111 127
-0.126724 0.350606 -0.0238781 0.129062 0.990912 -0.0379194 123 138 156
-0.122025 0.350444 -0.00840794 0.125402 0.989535 -0.0713759 85 124 154
-0.0516173 0.338298 0.0380605 0.115032 0.993249 -0.0150278 48 48 95
0.0410465 0.3227 0.0638903 0.17192 0.984875 -0.0215246 125 123 146
0.0676167 0.31853 0.0844845 0.179594 0.983471 -0.0230379 48 53 96
-0.189209 0.361698 -0.00630953 0.156352 0.987513 -0.0192831 40 46 95
-0.062879 0.342245 0.0496137 0.175267 0.98449 0.00775484 38 44 94
-0.200142 0.365098 0.00436742 0.0908345 0.994753 -0.0470713 41 46 96
0.0158507 0.326796 0.0727427 0.192713 0.980749 -0.0315113 43 48 95
-0.372972 0.393198 -0.0523504 0.222013 0.975033 -0.00474645 162 64 53
-0.105583 0.346493 0.0583948 0.0794402 0.991849 -0.0996197 137 129 139
-0.00206198 0.331234 0.114015 0.210893 0.97715 -0.0264745 152 84 82
-0.502948 0.415508 -0.0854824 0.162264 0.986709 -0.00872319 162 69 59
-0.38885 0.398074 -0.0158776 0.116148 0.990915 -0.0678094 166 75 63
0.325057 0.147002 0.0129957 0.0497662 0.284866 -0.957275 196 139 156
-0.460056 0.228887 -0.187413 0.0223859 0.251822 -0.967515 204 167 187
0.353012 0.262438 0.0793301 0.231316 0.972224 -0.0356907 164 43 32
-0.172622 0.318187 -0.0926252 0.303155 0.208167 -0.929926 121 122 112
0.49103 0.226345 0.153288 0.317325 0.818067 -0.479658 163 44 32
-0.864313 0.284169 -0.248919 -0.574043 0.339952 -0.74492 172 53 49
0.0967302 0.308666 0.00480588 0.183304 0.982097 -0.0434265 164 44 34
0.571001 0.226181 0.209461 0.127359 0.988654 -0.079642 169 105 96
-0.00969767 0.330674 0.0347039 0.120467 0.990416 -0.067551 113 100 119
-0.0483356 0.338103 0.0568576 0.0307162 0.997917 -0.056724 113 91 114
-0.195501 0.363504 0.0215418 0.204132 0.978743 -0.019814 36 43 94
-0.0226357 0.335238 0.092456 0.207157 0.977044 -0.0496978 159 88 85
-0.953348 -0.419699 -0.210088 0.489418 0.699823 -0.520306 146 19 32
0.47063 0.249119 0.104629 0.207538 0.974308 0.0874683 163 43 33
0.313157 0.274719 0.125991 0.158515 0.987233 -0.0156241 174 133 125
-0.244925 0.373248 -0.0786062 0.252347 0.874798 -0.413581 165 42 32
-0.106262 0.347996 -0.00477912 0.215286 0.975766 -0.0391379 78 120 153
-0.12149 0.351128 0.0525104 0.103477 0.993781 -0.0411263 79 106 137
-0.771466 -0.075519 -0.23144 0.695339 0.314942 -0.645999 31 128 54
0.541006 0.139067 0.0493258 0.362182 0.435176 -0.824286 193 161 174
0.454294 0.242625 0.091053 0.19632 0.976412 -0.0898763 163 43 33
-0.212055 0.363975 -0.0285335 0.141221 0.986809 -0.0791387 159 75 70
-0.0991599 0.34561 0.0287274 0.127629 0.991619 0.0200956 74 107 142
0.237437 0.270239 0.0218272 0.171116 0.967615 -0.185582 165 35 35
0.101869 0.306386 0.0230952 0.0891886 0.969174 -0.229669 154 56 47
