ply
format ascii 1.0
element vertex 268
property float x
property float y
property float z
property float nx
property float ny
property float nz
property uchar diffuse_red
property uchar diffuse_green
property uchar diffuse_blue
end_header
-0.67343 -0.473149 -0.156183 0.135851 -0.187035 -0.972915 146 20 35
-0.184939 -0.537441 -0.0497314 0.297631 -0.0797537 -0.951344 136 79 92
-0.707674 -0.406828 -0.177183 0.20566 -0.0574667 -0.976935 183 123 136
-0.229842 -0.501307 -0.0651312 0.15772 -0.127313 -0.979242 174 110 122
-0.388629 -0.45112 -0.101815 0.341858 -0.0409661 -0.938859 170 91 100
-0.729072 -0.36465 -0.187331 0.185129 -0.121896 -0.975125 182 99 110
-0.206625 -0.466814 -0.0641011 0.347932 -0.071768 -0.934768 165 91 101
-0.862359 -0.327646 -0.216429 0.207688 -0.0900839 -0.974038 195 158 168
-0.54026 -0.385308 -0.144929 0.134845 -0.107609 -0.985006 70 123 80
-0.254856 -0.432598 -0.0775089 0.126969 -0.0946849 -0.987377 194 167 182
-0.415044 -0.393932 -0.119513 0.196497 -0.172949 -0.965132 171 120 136
-0.59378 -0.341003 -0.158366 0.250811 -0.056493 -0.966387 52 126 69
-0.787797 -0.286498 -0.21375 0.252731 -0.055063 -0.965969 198 170 180
-0.22476 -0.394161 -0.0727443 0.196907 -0.164249 -0.966566 190 172 191
-0.881236 -0.257247 -0.227809 0.198647 -0.00676123 -0.980048 191 136 155
-0.455982 -0.315685 -0.133893 0.191935 -0.050717 -0.980096 123 142 192
-0.519243 -0.309399 -0.151777 0.37852 -0.0783101 -0.922274 85 92 152
-0.228143 -0.360345 -0.0835427 0.270522 -0.0143651 -0.962606 130 123 170
-0.185874 -0.362888 -0.0743598 0.183011 -0.0393405 -0.982324 136 124 169
-0.165403 -0.370916 -0.0687417 0.26427 -0.051892 -0.963052 129 114 158
-0.01826 -0.396827 -0.0338947 0.297946 -0.0919242 -0.950147 194 159 181
0.0670565 -0.416098 -0.0126955 0.256957 -0.0239843 -0.966125 176 158 187
0.109204 -0.417568 -0.0036194 0.050383 -0.00672009 -0.998707 182 162 184
0.272511 -0.452174 0.0320619 0.212069 0.101166 -0.972004 178 90 119
-0.785496 -0.256994 -0.204828 0.195628 0.0164829 -0.98054 151 43 63
-0.328737 -0.322687 -0.106778 0.19895 -0.168705 -0.965379 191 179 192
0.494194 -0.491845 0.0890555 0.13756 0.126515 -0.98238 171 140 165
0.535019 -0.49492 0.0965823 0.130956 0.185398 -0.973898 180 142 166
-0.677268 -0.256201 -0.18899 0.204077 -0.0297585 -0.978502 39 127 61
-0.518651 -0.282808 -0.14679 0.133931 -0.0805828 -0.987709 24 43 136
-0.328678 -0.29833 -0.107196 0.155301 -0.0251965 -0.987546 117 121 173
0.251328 -0.415282 0.028008 0.246746 0.0302221 -0.968609 184 119 149
0.513745 -0.458387 0.0963242 0.0904278 0.041892 -0.995022 51 61 132
-0.289802 -0.303269 -0.0994424 0.191012 -0.11552 -0.974767 184 163 178
-0.246199 -0.270532 -0.0926609 0.192114 0.0480526 -0.980195 196 187 199
0.120326 -0.344208 -0.00675973 0.234236 -0.10282 -0.966727 180 168 191
0.229762 -0.375658 0.0225552 0.238068 -0.0812874 -0.967841 181 77 115
-0.122921 -0.297521 -0.0635137 0.199759 -0.0404618 -0.979009 194 186 200
-0.698762 -0.187753 -0.193797 0.266223 -0.0722255 -0.961201 77 139 93
0.16312 -0.34315 -0.000249574 0.11971 -0.0468825 -0.991702 173 149 178
0.272147 -0.375423 0.0307828 0.290667 -0.0850832 -0.953034 178 172 189
-0.698536 -0.163003 -0.195284 0.246776 -0.0376014 -0.968342 127 162 139
0.0899119 -0.319786 -0.0121109 0.180419 -0.115109 -0.976831 15 38 134
-0.0589516 -0.282955 -0.0514703 0.238693 -0.025817 -0.970752 81 87 159
0.633748 -0.405235 0.120669 0.321989 0.0251737 -0.946409 168 65 98
0.158499 -0.291394 -0.00208099 0.183294 -0.0730415 -0.980341 16 37 133
-0.699486 -0.137 -0.19508 0.301686 -0.0480095 -0.952198 163 179 172
0.595169 -0.357941 0.108556 0.329919 0.0695366 -0.941444 153 73 94
0.632296 -0.378391 0.118337 0.182441 -0.0520352 -0.981839 172 59 95
-0.127275 -0.210142 -0.0702051 0.191029 -0.0390635 -0.980807 159 157 197
0.575542 -0.336528 0.0994385 0.216759 -0.139053 -0.966271 148 56 81
0.613538 -0.338276 0.10703 0.189394 -0.102449 -0.976542 171 54 90
-0.714682 -0.0769308 -0.203279 0.234164 -0.132843 -0.963079 152 64 89
-0.0805585 -0.184659 -0.0604047 0.209745 -0.0766067 -0.97475 199 162 185
-0.286858 -0.127594 -0.108378 0.230756 -0.0651932 -0.970825 150 151 192
0.113177 -0.133787 -0.0206556 0.19105 -0.100769 -0.976394 178 176 206
-0.285742 -0.0362456 -0.114346 0.198916 -0.0213086 -0.979785 182 135 155
-0.156821 -0.0481923 -0.0896415 0.471387 0.00268339 -0.881923 49 62 145
0.599244 -0.205112 0.099968 0.308092 -0.041264 -0.950461 176 160 181
-0.478051 0.0122696 -0.156739 0.294213 -0.0527475 -0.954283 177 179 208
0.150827 -0.110833 -0.012371 0.22562 -0.0399728 -0.973395 26 45 138
0.370266 -0.140643 0.0437289 0.12154 -0.00342869 -0.992581 86 93 151
-0.692495 0.0487337 -0.208452 0.183807 -0.0466946 -0.981853 194 164 183
8.19375e-05 -0.0700844 -0.0452772 0.0524574 0.0751802 -0.995789 189 161 182
-0.43767 0.0148295 -0.149795 0.180862 -0.0244379 -0.983205 46 82 161
0.637573 -0.179781 0.106885 0.177075 -0.0726135 -0.981515 171 48 73
0.600154 -0.157345 0.0983521 0.246859 -0.0795258 -0.965782 154 72 92
-0.634761 0.0821496 -0.197793 0.181588 -0.0129641 -0.983289 186 174 184
-0.577528 0.0929662 -0.186315 0.201316 -0.0421029 -0.978621 158 144 146
0.216439 -0.0655403 -0.00388674 0.203436 -0.108222 -0.973089 180 86 124
-0.823034 0.12644 -0.235252 0.172493 -0.142619 -0.974631 142 164 149
0.255282 -0.0671552 0.00830019 0.250211 -0.100466 -0.962965 192 117 158
0.600732 -0.132604 0.0960437 0.234545 -0.104595 -0.966462 170 56 85
-0.096667 0.0088295 -0.0777295 0.294464 -0.116402 -0.948547 192 162 187
0.466882 -0.100105 0.061467 0.245515 -0.0893825 -0.965264 176 61 84
0.560855 -0.109493 0.0847764 0.22496 -0.0485127 -0.97316 172 78 101
-0.335126 0.0540639 -0.130806 0.216682 -0.109996 -0.970026 192 175 194
-0.17517 0.0298018 -0.0974663 0.217867 -0.0424839 -0.975053 192 173 196
0.505104 -0.0994001 0.0702519 0.210623 -0.0805554 -0.974243 172 90 114
-0.227079 0.0464771 -0.109159 0.203837 0.000369189 -0.979005 164 154 187
0.0888214 -0.0152675 -0.0345472 0.323144 -0.0374845 -0.945607 177 153 185
-0.531117 0.0917633 -0.175308 0.246064 -0.0787324 -0.966051 165 127 159
-0.421634 0.0789495 -0.151835 0.259871 -0.056875 -0.963967 134 102 149
0.313173 -0.0570424 0.0220674 0.228912 -0.0834571 -0.969863 185 152 183
0.523313 -0.0860477 0.073404 0.206323 -0.0768548 -0.975461 144 122 160
-0.0250724 0.032148 -0.0625298 0.226916 0.00956791 -0.973867 108 106 164
-0.315802 0.0879088 -0.129274 0.238753 -0.0270139 -0.970705 193 176 197
-0.244995 0.0780215 -0.112992 0.220408 -0.0177983 -0.975245 89 88 150
0.541409 -0.0750019 0.0774062 0.232982 0.0277655 -0.972085 100 99 159
-0.594635 0.154105 -0.191892 0.207071 -0.0337746 -0.977743 128 113 159
0.391725 -0.00825082 0.0373405 0.25474 -0.119089 -0.959649 170 118 148
0.522145 -0.0407683 0.071811 0.230999 -0.0177652 -0.972791 153 134 172
-0.438865 0.132943 -0.155969 0.260561 0.0620179 -0.963463 187 166 191
-0.403228 0.133458 -0.148152 0.230903 0.0167169 -0.972833 193 162 186
-0.315839 0.130941 -0.130565 0.199416 -0.105258 -0.974245 196 161 184
0.288914 0.0173477 0.0124407 0.226712 -0.0301691 -0.973494 187 107 141
-0.505752 0.154117 -0.174381 0.193794 -0.108674 -0.975005 187 173 194
-0.244862 0.120746 -0.113855 0.289789 -0.0372766 -0.956365 196 166 187
0.578025 -0.0288039 0.0906294 0.204273 0.0590523 -0.977132 188 174 186
0.466679 0.0149168 0.0550889 0.272706 -0.0299757 -0.96163 178 61 78
-0.297363 0.184866 -0.129296 0.345746 0.0115914 -0.938257 177 171 177
0.773217 -0.0078522 0.135038 0.468949 0.0221216 -0.882948 166 29 31
-0.243675 0.259193 -0.117575 0.136485 0.0821579 -0.987229 72 83 72
-0.212338 0.279289 -0.110419 0.139717 0.107159 -0.984376 73 101 80
-0.197898 0.320006 -0.102076 0.266388 0.0894182 -0.959709 97 107 91
-0.208241 0.360707 -0.0686589 0.269674 0.951473 -0.148244 157 41 32
0.0862149 0.31018 0.0183516 0.220067 0.966705 -0.130579 156 44 34
-0.730695 -0.45745 -0.169822 0.233381 -0.16833 -0.957704 145 24 42
-0.223668 -0.534127 -0.0610283 0.363855 -0.0575011 -0.929679 68 109 67
-0.888346 -0.372111 -0.21846 0.302553 -0.0442595 -0.952105 178 90 97
-0.60739 -0.43435 -0.153196 0.217159 -0.0736614 -0.973353 180 107 120
-0.434823 -0.453916 -0.112513 0.165568 -0.175139 -0.970523 182 103 114
-0.36634 -0.461458 -0.0954255 0.180202 -0.133706 -0.9745 194 162 168
-0.637939 -0.392232 -0.164873 0.180112 -0.0560308 -0.982049 200 142 152
-0.584457 -0.392649 -0.152736 0.211791 -0.0589403 -0.975536 181 116 125
-0.684018 -0.367174 -0.175429 0.192005 -0.0860405 -0.977616 199 164 174
-0.39432 -0.409981 -0.10982 0.190479 -0.0662541 -0.979452 189 143 158
-0.798423 -0.309226 -0.199798 0.324707 -0.0644321 -0.943618 195 176 188
-0.751289 -0.325969 -0.195112 0.196894 -0.12687 -0.972181 194 153 164
-0.184312 -0.423397 -0.0633014 0.201438 -0.155056 -0.967151 194 164 186
-0.565141 -0.347816 -0.151859 0.168951 -0.125622 -0.977586 62 130 80
-0.614772 -0.301702 -0.166796 0.184991 -0.0682342 -0.980369 156 168 162
-0.267254 -0.341235 -0.0893762 0.233516 0.0988697 -0.967313 144 142 179
0.15328 -0.395395 0.0047604 0.161248 -0.0675098 -0.984602 186 81 121
-0.465513 -0.276296 -0.132237 0.443957 -0.123981 -0.887429 149 171 203
-0.081429 -0.348736 -0.0498183 0.188501 -0.0816361 -0.978674 196 167 187
0.358577 -0.42079 0.0523666 0.235666 -0.0309626 -0.97134 43 56 134
-0.518577 -0.258636 -0.147526 0.263598 -0.0442821 -0.963616 13 38 139
-0.328103 -0.273158 -0.10847 0.0738663 0.0285224 -0.99686 42 78 157
0.180975 -0.360252 0.00589341 0.158058 -0.0602924 -0.985587 183 114 144
-0.300097 -0.251355 -0.109356 0.496621 -0.179068 -0.849296 73 86 153
0.0459703 -0.291868 -0.0290567 0.21563 -0.130989 -0.96765 13 38 138
-0.306438 -0.210396 -0.108457 0.189512 -0.0358901 -0.981222 58 107 182
0.251986 -0.305547 0.0243738 0.21001 -0.0640002 -0.975603 184 180 198
-0.0874084 -0.233627 -0.0593774 0.244386 -0.0182323 -0.969506 185 170 194
0.0458106 -0.268464 -0.0287731 0.355888 -0.0787308 -0.931206 12 37 136
-0.327802 -0.176926 -0.112447 0.0469256 -0.10808 -0.993034 78 143 207
-0.28707 -0.174769 -0.106267 0.218702 -0.0571208 -0.974119 59 73 145
0.131331 -0.246116 -0.00963136 0.121289 -0.0789408 -0.989473 100 104 160
-0.127235 -0.185953 -0.0712335 0.179024 -0.0665381 -0.981593 191 180 205
-0.324743 -0.149748 -0.120866 0.283125 -0.033391 -0.958501 78 142 206
-0.286877 -0.150636 -0.107675 0.232216 -0.0453156 -0.971608 88 97 159
0.112345 -0.181531 -0.0163186 0.200234 -0.0588984 -0.977976 188 184 204
-0.0805756 -0.160935 -0.0616566 0.246673 -0.0395444 -0.968291 199 166 187
-0.696175 -0.0397968 -0.201796 0.274315 -0.0915504 -0.957272 194 150 174
0.576474 -0.264224 0.0967533 0.221019 -0.0590671 -0.973479 177 58 92
-0.754662 0.0105764 -0.215154 0.327957 -0.0513035 -0.943298 146 43 58
0.535922 -0.216496 0.0860857 0.149841 -0.0218475 -0.988469 152 149 185
-0.797438 0.0299537 -0.226937 0.161386 -0.0691524 -0.984466 131 163 138
0.445973 -0.197442 0.0581823 0.12524 -0.036065 -0.991471 11 36 134
-0.22434 -0.0671695 -0.0996478 0.184177 -0.118708 -0.975699 22 47 148
0.293261 -0.16122 0.0278241 0.303848 -0.0256716 -0.952375 22 46 143
-0.157384 -0.0661831 -0.092798 0.520261 0.0168384 -0.853841 27 46 144
0.254492 -0.138063 0.0157296 0.307862 -0.0306538 -0.950937 189 177 194
0.41029 -0.162737 0.0502965 0.36611 -0.150221 -0.918366 181 169 187
-0.786264 0.126549 -0.229017 0.190236 0.0260861 -0.981392 153 164 155
-0.417572 0.0499023 -0.149506 0.202854 -0.130435 -0.970483 188 152 170
-0.512416 0.0810446 -0.171209 0.182056 -0.0568618 -0.981643 173 123 147
0.294791 -0.0427045 0.0162002 0.235656 -0.0572123 -0.970151 131 118 159
0.541423 -0.09729 0.078302 0.231412 -0.0556336 -0.971264 158 109 141
0.0357999 -0.00352095 -0.0496084 0.299069 0.0920239 -0.949783 193 157 185
0.216623 -0.0247095 -0.00525188 0.214175 -0.0423489 -0.975877 188 140 168
-0.0618541 0.0318975 -0.0724014 0.287751 0.0156447 -0.957578 195 149 178
-0.0070997 0.0214137 -0.058396 0.213702 0.0217551 -0.976656 119 117 167
-0.65139 0.142799 -0.203872 0.136333 -0.0437222 -0.989697 58 73 51
-0.543173 0.132332 -0.181141 0.182095 -0.0139822 -0.983182 146 143 189
-0.47398 0.103674 -0.164087 0.232127 0.0103547 -0.97263 133 126 180
-0.151047 0.0639002 -0.0925922 0.240011 -0.00242902 -0.970767 154 151 195
0.252298 -0.00469237 0.00410781 0.229274 -0.0204296 -0.973147 137 133 182
0.593872 -0.0739721 0.084613 0.288217 0.0584667 -0.955779 136 128 173
0.645269 -0.0844203 0.107829 0.374359 0.0712315 -0.924544 185 170 182
0.411746 -0.241896 0.0606444 -0.0522676 -0.0283725 -0.99823 85 93 154
0.162717 0.0296707 -0.0196628 0.253543 -0.0623228 -0.965314 173 153 185
0.0864947 0.0682668 -0.0684788 0.2516 0.370009 -0.89431 184 149 183
0.180626 0.0387399 -0.0115362 0.236173 0.10039 -0.966511 195 138 169
0.56085 -0.0164969 0.0792273 0.210736 -0.10699 -0.971671 189 169 182
-0.50887 0.198288 -0.177243 0.0883812 0.0914191 -0.991883 168 53 59
-0.242668 0.185992 -0.117897 0.162401 0.0322547 -0.986198 189 177 189
0.289059 0.104379 0.00738688 0.26354 -0.0376196 -0.963914 196 161 173
-0.348381 0.252688 -0.139419 0.0357536 -0.0725353 -0.996725 197 149 157
-0.184964 0.234785 -0.104426 0.264075 0.00693069 -0.964477 189 164 178
0.410853 0.171165 0.0381237 0.206563 0.0699361 -0.975931 201 169 182
0.562618 0.152797 0.0825017 0.154462 -0.197221 -0.968115 168 50 62
0.536384 0.208844 0.0835695 0.235535 0.185102 -0.954076 193 97 133
-0.211468 0.366313 -0.0896085 0.270548 0.427987 -0.86234 157 38 34
-0.755358 -0.438757 -0.18066 0.147396 -0.190719 -0.970516 155 52 70
-0.730747 -0.424283 -0.177616 0.216948 -0.140247 -0.966057 180 103 118
-0.640148 -0.470065 -0.145136 0.281919 -0.168219 -0.944576 150 39 57
-0.349629 -0.36371 -0.10416 0.214816 -0.168438 -0.962021 194 184 197
0.1523 -0.418078 0.00368534 0.112363 -0.0502465 -0.992397 181 68 105
0.172259 -0.429463 0.00906386 0.173415 -0.0203644 -0.984638 184 70 107
-0.740903 -0.21968 -0.199681 0.278558 -0.0628176 -0.958363 34 128 55
-0.585052 -0.235415 -0.162326 0.147467 -0.11511 -0.982346 18 40 135
-0.123683 -0.323143 -0.060479 0.158326 -0.138759 -0.977588 194 175 191
-0.0385261 -0.345795 -0.0413041 0.293339 -0.114469 -0.949131 190 157 180
-0.602613 -0.223611 -0.166695 0.272869 -0.037533 -0.961319 37 54 139
-0.52425 -0.233714 -0.155162 0.162723 0.000732284 -0.986671 12 38 140
-0.461629 -0.247484 -0.13709 0.179655 -0.0524592 -0.98233 157 174 204
0.141686 -0.357311 -0.00084865 0.205721 -0.0819382 -0.975174 176 115 143
-0.267659 -0.285946 -0.0908461 0.225972 -0.1632 -0.960366 191 171 186
-0.718801 -0.126219 -0.201107 0.315102 -0.033593 -0.948464 50 123 65
-0.107315 -0.19818 -0.0657842 0.250946 -0.0462056 -0.966898 159 93 116
-0.0408226 -0.178162 -0.0522786 0.232603 -0.150374 -0.960876 192 160 182
-0.63471 -0.0416218 -0.196155 0.00460161 -0.0306443 -0.99952 18 44 144
-0.7554 -0.0144793 -0.211056 0.341069 -0.0304961 -0.939543 119 42 46
0.464163 -0.212257 0.0656108 0.449244 -0.173029 -0.876493 9 34 131
0.197552 -0.151954 0.00110945 0.212753 -0.0572401 -0.975428 14 39 140
-0.856242 0.063071 -0.239898 0.0998407 0.07572 -0.992118 39 131 63
-0.540431 0.0124052 -0.172997 0.163808 -0.137526 -0.976859 13 38 142
-0.422024 -0.00646818 -0.14375 0.208454 0.00281284 -0.978028 70 127 198
-0.679094 0.125641 -0.202739 0.152585 0.158472 -0.975502 47 71 50
-0.421099 0.144024 -0.152294 0.230053 0.00135208 -0.973178 195 154 181
-0.226806 0.130931 -0.112292 0.161841 -0.189472 -0.968456 195 153 179
0.787469 -0.0170185 0.142195 0.614276 -0.210971 -0.760366 167 28 30
-0.26241 0.224522 -0.11915 0.214813 0.0644595 -0.974526 67 91 74
0.446425 0.209707 0.0419332 0.542786 0.121071 -0.831098 181 55 72
0.585878 0.216728 0.09709 0.431594 0.671468 -0.602376 164 43 45
-0.968981 -0.42933 -0.207452 -0.278601 0.815529 -0.507242 144 20 31
-0.282787 -0.510142 -0.0742508 0.331525 -0.0722208 -0.940678 126 146 123
-0.662929 -0.373925 -0.173762 0.02856 -0.109355 -0.993592 171 80 87
-0.159111 -0.437501 -0.0589619 0.211218 -0.146712 -0.966366 194 155 181
-0.331285 -0.380934 -0.0990158 0.235402 -0.131015 -0.963027 195 185 197
0.383112 -0.422804 0.0603471 0.300437 -0.0411227 -0.952915 145 145 177
-0.762037 -0.214169 -0.20071 0.274833 -0.0739028 -0.958648 38 126 55
-0.523743 -0.205751 -0.157851 0.203546 -0.128049 -0.970656 13 38 141
-0.440449 -0.23528 -0.133768 0.273915 -0.055692 -0.96014 79 142 203
0.492695 -0.386933 0.0812147 0.475907 -0.206038 -0.855021 8 32 127
-0.326365 -0.199013 -0.11531 0.31762 -0.0769607 -0.94509 77 143 206
-0.182838 -0.211366 -0.0811594 0.237642 -0.0451212 -0.970304 13 39 141
0.111272 -0.209856 -0.0154577 0.166017 -0.0640595 -0.98404 184 182 204
-0.754577 -0.0376804 -0.210782 0.380389 0.0304606 -0.924325 80 66 42
-0.503265 -0.0797634 -0.157309 0.221989 -0.0498846 -0.973773 60 71 148
-0.442217 -0.0410763 -0.145597 0.178393 -0.0727701 -0.981264 78 143 205
0.0534625 -0.138455 -0.035292 -0.300482 0.0657273 -0.95152 15 38 138
0.473211 -0.227176 0.0655183 0.330234 -0.0826494 -0.940274 11 34 133
0.576895 -0.238645 0.0929461 0.284111 -0.110137 -0.952444 171 55 89
-0.190994 -0.0814611 -0.0922869 0.380938 -0.108108 -0.918259 13 39 143
0.331039 -0.163717 0.039133 0.12556 0.184549 -0.97477 14 37 138
-0.673528 0.0368717 -0.203931 0.199705 -0.0648326 -0.977709 183 161 173
0.747805 -0.178235 0.135465 0.468981 0.0110061 -0.88314 170 41 60
0.133061 -0.0547405 -0.0210518 0.194919 -0.147862 -0.969609 167 92 123
0.332878 -0.0453798 0.0252073 0.164595 -0.0361211 -0.9857 144 138 181
0.391981 0.0136806 0.0371502 0.23442 -0.0686882 -0.969706 182 49 65
0.701211 -0.0260672 0.111399 0.430702 0.119259 -0.89458 187 181 195
-0.455316 0.188715 -0.165089 0.2097 0.0106456 -0.977707 196 153 180
0.41996 0.023101 0.0434016 0.205674 -0.0602365 -0.976765 182 44 56
-0.52704 0.249765 -0.181717 0.314193 -0.0351257 -0.948709 167 41 42
-0.658911 -0.304306 -0.173828 0.199814 -0.110871 -0.973541 173 156 156
0.614803 -0.465197 0.112602 -0.00428411 0.0122066 -0.999916 176 93 125
-0.357626 -0.230884 -0.0894895 -0.516707 0.1605 -0.840984 74 141 204
-0.195403 -0.140932 -0.0858955 0.21355 -0.0339858 -0.976341 14 39 142
-0.0619188 -0.0977407 -0.0609794 0.139879 -0.11378 -0.98361 198 168 189
-0.177198 0.165049 -0.103622 0.370028 0.0422655 -0.928058 199 136 168
-0.175761 0.187332 -0.107209 0.182491 0.1587 -0.970315 197 140 166
0.44568 0.127435 0.0481343 0.244411 0.0531661 -0.968213 197 176 188
0.378323 0.153692 0.0255403 0.170355 0.14293 -0.974962 197 169 181
-0.0608349 0.253979 -0.075327 0.231717 0.0619509 -0.970808 191 43 49
0.182817 -0.59857 0.066347 0.225207 0.747854 -0.624495 176 63 87
-0.721077 -0.284293 -0.189324 0.196324 -0.0258316 -0.980199 162 137 139
-0.0841915 -0.373874 -0.0475913 0.239513 0.0654707 -0.968683 184 156 184
-0.421781 -0.288221 -0.121165 0.472833 -0.0705593 -0.878322 72 140 202
0.0911984 -0.221694 -0.01939 0.222621 -0.0628847 -0.972875 32 49 135
-0.216134 0.0986112 -0.108762 0.223385 -0.0572901 -0.973045 177 161 187
-0.386095 0.193153 -0.149635 0.210891 -0.143286 -0.966951 200 155 173
0.638443 0.0235682 0.0909359 0.346921 0.0150687 -0.937773 187 181 194
0.131607 -0.222101 -0.0110576 0.126447 -0.0633937 -0.989946 89 96 157
-0.366643 0.11286 -0.140958 0.246007 -0.0685016 -0.966845 160 149 183
0.577667 -0.394666 0.101631 0.140918 -0.0518352 -0.988663 37 49 122
