ply
format ascii 1.0
element vertex 701
property float x
property float y
property float z
property float nx
property float ny
property float nz
property uchar diffuse_red
property uchar diffuse_green
property uchar diffuse_blue
end_header
-0.0758984 -0.287707 0.236169 -0.722805 -0.69022 -0.0339182 145 126 125
-0.0720161 -0.305885 0.219548 -0.716854 -0.695727 -0.0456603 148 133 132
-0.0643723 -0.374849 0.241036 -0.001001 -0.999334 0.0364831 155 133 133
-0.0538082 -0.362438 0.202501 0.0213126 -0.992302 -0.122 154 140 139
-0.0554276 -0.376148 0.21855 -0.0203302 -0.981531 -0.190217 156 140 139
0.0247769 -0.347292 0.0983164 -0.894093 -0.447824 -0.00729652 141 124 121
0.0340011 -0.374948 0.11934 -0.93306 -0.344386 0.103912 146 137 135
0.0457537 -0.343499 0.0532875 -0.656113 -0.738119 -0.157149 157 143 141
-0.583991 0.31066 0.633379 0.378492 -0.890798 -0.251439 71 38 26
-0.575911 0.312722 0.606538 0.582698 -0.753022 -0.305649 63 33 22
-0.55201 0.367216 0.575196 0.396863 -0.888085 -0.231959 53 27 19
-0.527761 0.37207 0.526641 0.712965 -0.673195 0.196185 54 26 20
-0.544731 0.372915 0.533663 0.616293 -0.760777 0.20347 52 27 20
-0.494305 0.302801 0.492602 -0.820996 -0.230794 0.522207 83 34 35
-0.476824 0.27551 0.504552 -0.487909 -0.465687 0.738297 63 21 21
-0.480708 0.264837 0.48591 -0.512635 -0.548432 0.660626 99 53 53
-0.467971 0.276551 0.497105 -0.492377 -0.469943 0.73261 74 26 28
-0.455443 0.237364 0.462783 -0.286042 -0.109756 0.951911 137 101 99
-0.419575 0.167681 0.469653 -0.712664 -0.285377 0.640835 101 11 14
-0.420914 0.147776 0.45443 -0.495938 -0.789652 0.361242 118 33 37
-0.394826 0.119459 0.449812 -0.687117 -0.490523 0.535963 151 127 132
-0.393532 0.0995058 0.436498 -0.661002 -0.661345 0.35454 148 123 128
-0.378606 0.0816227 0.43894 -0.688594 -0.544656 0.478736 150 128 133
-0.375591 0.0680423 0.422295 -0.619946 -0.671592 0.405749 142 100 108
-0.352622 0.0377313 0.417871 -0.577476 -0.552844 0.600737 107 15 19
-0.336229 0.02418 0.419328 -0.578867 -0.486769 0.654193 129 50 59
-0.34187 0.00838524 0.426697 0.0659364 -0.689442 0.721333 130 65 73
-0.338772 -0.00912138 0.416089 -0.086397 -0.856452 0.508947 140 99 107
-0.337486 -0.0104343 0.415993 0.126004 -0.765439 0.631052 141 102 110
-0.314614 0.00123994 0.403648 -0.434552 -0.344764 0.832047 157 136 146
-0.305199 -0.0142203 0.384969 0.466943 -0.810585 0.353436 146 123 131
-0.306581 -0.0145854 0.384211 0.44613 -0.801895 0.397407 146 122 130
-0.308523 -0.0381539 0.375757 0.246739 -0.775935 0.580555 136 96 102
-0.29413 -0.0285676 0.389817 0.221549 -0.805438 0.549715 141 116 124
-0.248274 -0.133347 0.34984 0.337189 -0.245539 0.908853 125 23 26
-0.225949 -0.144166 0.341461 0.191198 -0.275834 0.941998 130 33 37
-0.222275 -0.178163 0.335063 0.344148 -0.0859356 0.934974 115 13 17
-0.206065 -0.19587 0.335343 -0.145046 -0.0733398 0.986704 117 13 18
-0.204409 -0.236789 0.331111 0.419778 -0.281147 0.862985 116 14 18
-0.187085 -0.248192 0.302762 0.493569 -0.393917 0.775383 120 16 21
-0.160338 -0.254399 0.287376 0.528105 -0.218848 0.820494 128 21 25
-0.152116 -0.276147 0.266089 0.575612 -0.458605 0.677018 130 41 45
-0.145799 -0.245327 0.27593 0.582137 -0.253989 0.772403 130 30 34
-0.136331 -0.270938 0.251846 0.388561 -0.599905 0.699382 122 38 41
-0.120117 -0.282345 0.234492 0.14738 -0.986092 0.0768232 130 86 86
-0.0451589 -0.354953 0.177424 0.289137 -0.955984 -0.0499531 155 142 140
-0.0259153 -0.360473 0.142533 -0.230393 -0.903813 -0.360612 151 140 137
-0.59666 0.326004 0.597016 0.408881 -0.883931 -0.226897 74 40 28
-0.575954 0.365146 0.546891 0.448814 -0.872919 -0.191253 55 29 20
-0.526846 0.311404 0.502224 0.646265 -0.713443 0.270816 40 18 15
-0.511071 0.290177 0.479927 -0.491997 -0.485677 0.722534 101 65 63
-0.515012 0.306212 0.478485 0.508643 -0.695207 0.507906 99 60 60
-0.492501 0.269597 0.489039 -0.491866 -0.481341 0.72552 94 50 49
-0.497816 0.261204 0.468348 -0.493533 -0.481633 0.724192 133 97 89
-0.488841 0.170201 0.499397 0.493502 -0.128772 0.860159 145 106 98
-0.451205 0.209364 0.46058 -0.265662 -0.137472 0.954214 143 99 96
-0.468521 0.149084 0.491095 0.423053 -0.593855 0.68437 147 102 95
-0.445491 0.182695 0.458094 -0.280255 -0.0192576 0.959733 141 87 84
-0.435332 0.144703 0.440037 -0.512351 -0.559237 0.651729 128 48 49
-0.41168 0.112214 0.437383 -0.519316 -0.683371 0.51314 151 121 126
-0.395037 0.0960672 0.435225 -0.656532 -0.501714 0.563249 146 121 125
-0.391479 0.0842373 0.417138 -0.595635 -0.454044 0.662619 142 106 113
-0.37302 0.0524245 0.406648 -0.647215 -0.622239 0.440376 110 34 40
-0.374213 0.027297 0.398824 -0.381501 -0.152877 0.911639 97 9 14
-0.356895 -0.000408157 0.416087 -0.274827 -0.761754 0.586687 103 26 32
-0.350457 0.0213162 0.404077 -0.573714 -0.611305 0.545122 102 17 24
-0.353421 -0.0169245 0.404673 -0.0290028 -0.855205 0.517477 115 46 54
-0.332908 -0.0264382 0.40226 0.203752 -0.684995 0.699476 146 113 122
-0.322886 -0.0310208 0.377205 0.298382 -0.80213 0.517257 137 102 109
-0.344493 -0.0303728 0.384224 0.120308 -0.904506 0.40914 130 78 85
-0.314189 -0.0334027 0.349173 -0.156233 0.0706329 0.985192 121 54 59
-0.305368 -0.104761 0.362436 0.338823 -0.216895 0.915509 124 15 18
-0.289726 -0.0542698 0.339479 -0.518365 0.0340852 0.85448 127 23 27
-0.280836 -0.121109 0.35708 0.0515343 -0.270347 0.961382 117 12 16
-0.282937 -0.146222 0.350689 0.290468 -0.328663 0.898671 117 21 25
-0.269836 -0.172562 0.355365 0.054763 -0.2806 0.958262 119 20 25
-0.262978 -0.13633 0.351066 0.209398 -0.22422 0.951776 116 13 16
-0.251053 -0.18847 0.356767 0.0129726 -0.231308 0.972794 120 16 20
-0.246938 -0.206361 0.344981 0.13911 -0.171751 0.975269 124 30 35
-0.244905 -0.229414 0.33654 0.356496 -0.168454 0.918985 144 79 85
-0.225121 -0.220924 0.337555 0.12803 -0.521081 0.84385 115 16 20
-0.220343 -0.238664 0.322194 0.258967 -0.33251 0.906848 129 46 52
-0.199137 -0.245806 0.309384 0.229644 -0.382652 0.894897 123 23 29
-0.202254 -0.262796 0.294777 0.0888696 -0.691828 0.716573 147 76 82
-0.181698 -0.266305 0.290766 0.436584 -0.246374 0.865272 133 39 45
-0.175184 -0.273964 0.283689 0.204477 -0.42098 0.883722 136 49 56
-0.171986 -0.285403 0.263556 0.0892165 -0.675441 0.731997 152 104 110
-0.0844473 -0.371434 0.20421 0.207295 -0.927718 0.310435 120 71 73
-0.623562 0.316796 0.598617 0.403009 -0.884294 -0.235814 78 44 30
-0.572029 0.332951 0.528371 0.837188 -0.530687 0.132242 48 23 15
-0.547691 0.317207 0.501233 0.62936 -0.729617 0.267517 38 16 12
-0.566816 0.322616 0.50525 0.682693 -0.58983 0.431313 43 18 14
-0.535868 0.311076 0.477909 0.560212 -0.618926 0.550539 77 48 45
-0.557226 0.308452 0.481615 0.141295 -0.595181 0.791072 82 55 51
-0.532096 0.276888 0.46989 -0.185441 -0.251609 0.949897 136 103 94
-0.525225 0.28165 0.468004 -0.46968 -0.43973 0.765531 134 101 93
-0.508269 0.268299 0.47058 -0.467063 -0.434071 0.770347 136 101 94
-0.507853 0.20457 0.485722 -0.872419 -0.308674 0.378954 148 111 100
-0.51264 0.152514 0.507436 0.514714 -0.238875 0.823412 146 106 96
-0.515689 0.215378 0.476202 -0.520269 -0.48677 0.701694 148 111 101
-0.489014 0.144865 0.49073 0.395726 -0.228147 0.889578 147 106 94
-0.476881 0.126213 0.470506 0.659268 -0.502812 0.559058 158 112 103
-0.455498 0.122434 0.43929 0.555894 -0.488838 0.672325 154 101 96
-0.43237 0.128455 0.426368 -0.126443 -0.731876 0.669604 145 94 94
-0.42748 0.0831676 0.408414 -0.201054 -0.7852 0.585696 150 109 112
-0.410573 0.0947667 0.415871 -0.323604 -0.730079 0.601885 155 127 133
-0.425197 0.110071 0.407945 -0.627438 -0.394891 0.671105 153 119 119
-0.410083 0.0734287 0.410372 -0.23968 -0.908518 0.34227 146 98 104
-0.401392 0.0665114 0.392472 -0.453045 -0.326617 0.8295 138 48 53
-0.388232 0.0485032 0.393081 -0.534113 -0.341546 0.77335 114 14 19
-0.370932 -0.00610091 0.402034 -0.134188 -0.846248 0.515614 103 14 18
-0.382597 -0.00510734 0.382312 -0.173845 -0.970943 -0.164464 118 13 16
-0.343596 -0.0559116 0.37682 0.623877 -0.530296 0.574076 129 73 78
-0.328895 -0.103879 0.361357 0.262818 0.0071714 0.964818 127 26 30
-0.328885 -0.103847 0.361329 0.261626 0.00691566 0.965144 127 26 30
-0.328885 -0.103847 0.361329 0.261626 0.00691566 0.965144 127 26 30
-0.301859 -0.133489 0.359043 0.233399 -0.00928934 0.972337 117 18 23
-0.308029 -0.168609 0.362166 0.275877 -0.0301239 0.960721 146 90 97
-0.288814 -0.180334 0.352975 0.0831964 -0.344214 0.935198 144 78 85
-0.288964 -0.205562 0.347017 0.0894472 -0.260794 0.961242 162 117 125
-0.268658 -0.1917 0.349077 0.24357 -0.0864734 0.966021 131 46 52
-0.267336 -0.216355 0.342182 0.195647 -0.192332 0.961629 155 103 110
-0.264071 -0.236617 0.330891 0.117341 -0.391844 0.912518 160 125 132
-0.241004 -0.249024 0.322907 0.304686 -0.482019 0.821477 158 110 117
-0.223004 -0.257516 0.309226 0.182101 -0.486154 0.854689 155 101 107
-0.218655 -0.285353 0.292682 -0.0842408 -0.809238 0.58141 166 136 143
-0.197935 -0.287478 0.287675 0.30055 -0.478679 0.824946 158 112 119
-0.205149 -0.314272 0.279993 0.220996 -0.882216 0.41576 172 148 155
-0.186268 -0.296711 0.252728 0.187921 -0.7213 0.666643 156 115 121
-0.166181 -0.300901 0.249763 0.159167 -0.745757 0.646925 139 81 85
-0.16333 -0.301234 0.248031 0.100936 -0.974824 0.198823 137 72 77
-0.154912 -0.303827 0.221509 -0.246112 -0.670586 0.699817 109 57 61
-0.647654 0.299626 0.614834 0.53282 -0.835831 -0.132243 86 48 34
-0.646938 0.316981 0.578796 0.481634 -0.858528 -0.175947 60 32 22
-0.627067 0.349989 0.554057 0.287964 -0.946118 -0.148109 74 41 29
-0.607789 0.311289 0.525648 0.412673 -0.882376 0.226079 46 21 15
-0.587179 0.312511 0.518521 0.454567 -0.845743 0.279439 43 18 14
-0.585372 0.295076 0.502732 0.698488 -0.656755 0.284232 54 30 25
-0.576804 0.307336 0.468532 0.581629 -0.697974 0.417781 125 93 88
-0.576486 0.308618 0.467561 0.621807 -0.711494 0.327311 125 93 88
-0.554963 0.245746 0.496393 0.369832 -0.801009 0.470753 137 105 96
-0.54899 0.259673 0.460826 -0.582151 -0.503162 0.638692 153 118 107
-0.536101 0.160215 0.504914 0.496428 -0.421394 0.758939 154 117 108
-0.533091 0.23524 0.468698 -0.620967 -0.371904 0.689991 150 113 101
-0.526837 0.130674 0.504729 -0.717216 -0.159103 0.678445 157 119 110
-0.518602 0.120848 0.498565 0.648263 -0.287943 0.704871 152 114 104
-0.499379 0.120941 0.474423 0.441959 -0.459518 0.770399 158 114 104
-0.480099 0.108327 0.447554 0.520297 -0.521798 0.676031 162 118 108
-0.463465 0.0949204 0.426502 0.499723 -0.463818 0.731539 162 119 111
-0.442769 0.0713238 0.399319 -0.164315 -0.592881 0.788348 145 93 90
-0.441245 0.101215 0.396027 -0.396743 -0.384295 0.833614 152 111 106
-0.425239 0.061545 0.402827 0.262167 -0.908771 0.324659 139 68 71
-0.419828 0.0472077 0.388634 -0.224405 -0.627635 0.745464 124 19 22
-0.41664 0.0213713 0.384045 -0.320793 -0.468106 0.823389 129 16 19
-0.392364 0.0271829 0.373786 -0.478927 -0.449632 0.753962 129 14 17
-0.383888 0.00706865 0.352805 -0.332385 -0.266972 0.904569 132 23 28
-0.38043 -0.0290957 0.349107 -0.237609 -0.115235 0.964501 145 87 93
-0.354231 -0.109338 0.37682 0.290154 -0.000518573 0.95698 146 79 87
-0.355984 -0.141122 0.376454 0.275776 -0.185145 0.943222 156 119 124
-0.334587 -0.12853 0.373759 0.405613 -0.034583 0.91339 128 38 42
-0.332256 -0.152565 0.366906 0.302034 -0.109981 0.946932 154 110 116
-0.327042 -0.173629 0.35739 0.0896792 -0.244914 0.965389 164 136 143
-0.308643 -0.189291 0.348387 -0.0140393 -0.401046 0.91595 163 127 133
-0.308368 -0.207391 0.337495 0.0306014 -0.397783 0.916969 163 128 135
-0.286867 -0.21974 0.333721 0.016091 -0.373184 0.927618 166 132 140
-0.282715 -0.236754 0.320744 0.150783 -0.351912 0.923809 167 136 144
-0.276789 -0.282235 0.337052 0.54305 -0.711819 0.445431 167 141 148
-0.243001 -0.295494 0.315702 -0.140925 -0.624854 0.767917 171 149 156
-0.23591 -0.312539 0.294725 0.0566076 -0.852485 0.519678 168 148 156
-0.236372 -0.31931 0.311503 -0.287308 -0.849836 0.44185 174 153 160
-0.228583 -0.314586 0.283727 0.050355 -0.998725 0.00349538 170 151 160
-0.220831 -0.321919 0.26364 0.197527 -0.896381 0.396842 167 148 155
-0.192602 -0.308813 0.243702 0.204175 -0.960519 0.188988 160 136 142
-0.629748 0.307457 0.538081 -0.187011 -0.870074 0.456068 51 25 18
-0.627382 0.302928 0.513872 0.400117 -0.804613 0.438754 46 21 17
-0.609435 0.257533 0.514106 0.395802 -0.801592 0.448097 110 80 75
-0.610735 0.283702 0.521705 0.345253 -0.860174 0.375366 61 35 31
-0.589932 0.230212 0.48382 0.375474 -0.805206 0.45898 149 112 101
-0.566525 0.167978 0.504344 -0.628808 -0.102506 0.770774 157 118 106
-0.565544 0.14391 0.495565 -0.13676 -0.555278 0.820343 154 113 99
-0.548507 0.119342 0.49187 -0.401538 -0.837561 0.370485 159 118 106
-0.523448 0.101309 0.48377 0.317587 -0.720263 0.616733 163 122 110
-0.504102 0.0957484 0.454592 0.534477 -0.555203 0.637247 160 112 97
-0.486744 0.0917081 0.427063 0.417374 -0.331183 0.846237 161 115 103
-0.459072 0.084087 0.392402 0.0212415 -0.30993 0.950521 157 112 105
-0.451971 0.043585 0.3771 0.0446476 -0.668623 0.74226 138 77 70
-0.437269 0.0556315 0.386669 0.0449595 -0.729582 0.682414 128 51 49
-0.456988 0.060388 0.388793 -0.0751208 -0.598554 0.797553 154 104 97
-0.432616 0.0382206 0.375711 -0.0931157 -0.64755 0.756312 114 21 22
-0.4283 0.0190058 0.361246 0.184722 -0.236173 0.953992 109 14 17
-0.406986 0.00374553 0.353535 -0.378043 -0.190999 0.905871 134 23 27
-0.407227 -0.0170877 0.342889 -0.205889 0.0120971 0.978501 138 58 63
-0.393182 -0.0988111 0.370207 -0.158745 0.06088 0.985441 166 137 143
-0.375923 -0.122255 0.378775 0.148706 -0.160065 0.975841 160 130 135
-0.380152 -0.160734 0.384683 0.359357 -0.203653 0.910708 162 140 145
-0.350897 -0.158061 0.362831 0.135016 -0.370987 0.918771 163 140 146
-0.34723 -0.179574 0.350827 0.062257 -0.333442 0.940713 168 143 150
-0.333564 -0.22014 0.351968 -0.372292 -0.735207 0.566454 166 134 140
-0.308222 -0.248831 0.342441 -0.27189 -0.776695 0.568174 166 133 140
-0.327478 -0.229121 0.33415 -0.232747 -0.82093 0.521442 168 130 138
-0.296934 -0.279295 0.319265 -0.135691 -0.516759 0.845309 156 104 111
-0.268819 -0.292434 0.316644 0.2806 -0.657685 0.699081 167 142 148
-0.271692 -0.30156 0.295989 0.423943 -0.604615 0.674324 168 127 134
-0.256438 -0.302631 0.302451 0.332871 -0.659062 0.674414 167 140 146
-0.247997 -0.309769 0.286888 -0.21249 -0.844688 0.491275 170 137 145
-0.246281 -0.328684 0.278787 -0.12081 -0.87526 0.468322 174 137 145
-0.217856 -0.336315 0.248456 0.0362532 -0.934547 0.353987 165 136 142
-0.215209 -0.352129 0.236325 -0.0849373 -0.929612 0.358619 152 94 99
-0.687956 0.299285 0.564133 0.0225106 -0.956686 -0.290248 70 38 27
-0.671781 0.303423 0.557568 -0.184583 -0.902167 0.389903 51 27 19
-0.672104 0.293129 0.536218 0.0378624 -0.975378 0.217265 47 23 16
-0.649239 0.291741 0.531757 -0.125108 -0.845793 0.518635 46 22 16
-0.628554 0.234325 0.512469 0.0347491 -0.935542 0.351502 144 114 106
-0.633206 0.247983 0.527188 0.293065 -0.881276 0.370762 103 75 70
-0.611217 0.226711 0.49425 0.3755 -0.803168 0.462516 149 115 105
-0.609578 0.214309 0.492511 0.53598 -0.763282 0.360729 150 115 104
-0.599277 0.164235 0.506058 0.560382 -0.440384 0.701451 153 113 98
-0.562122 0.11294 0.478667 -0.119289 -0.758347 0.640843 159 116 100
-0.556536 0.0885657 0.472556 0.571121 -0.674397 0.467985 162 117 101
-0.532158 0.0785221 0.448687 0.66365 -0.584168 0.467243 164 119 104
-0.507634 0.0495856 0.416003 0.513768 -0.245512 0.82205 159 115 100
-0.466347 0.0324965 0.366951 -0.102378 -0.590465 0.800544 147 95 84
-0.450007 0.00646604 0.362598 0.301021 -0.275472 0.912963 128 62 56
-0.429325 -0.00696651 0.354101 0.284074 -0.269131 0.920256 110 24 25
-0.428909 -0.0845002 0.377224 0.040835 -0.0792757 0.996016 155 115 119
-0.406194 -0.122604 0.373141 0.0970898 -0.138329 0.985616 164 139 145
-0.404832 -0.150157 0.369884 0.214479 -0.335157 0.917425 164 136 142
-0.380606 -0.177893 0.377718 -0.032703 -0.44666 0.894105 162 139 145
-0.390709 -0.17541 0.356512 -0.0885578 -0.549042 0.831089 163 123 130
-0.375069 -0.189154 0.362402 -0.341506 -0.602475 0.721386 164 134 141
-0.352152 -0.212939 0.353685 -0.299494 -0.555971 0.775371 165 133 139
-0.370395 -0.202404 0.347552 -0.418286 -0.651326 0.633096 167 125 132
-0.345925 -0.221941 0.335298 -0.328929 -0.774452 0.540398 165 123 130
-0.348209 -0.226907 0.339148 -0.454799 -0.844638 0.28239 167 124 132
-0.340925 -0.237815 0.322806 -0.015529 -0.684772 0.728591 163 110 117
-0.319694 -0.238095 0.317777 0.0453114 -0.50178 0.863808 164 121 129
-0.31413 -0.258434 0.309754 -0.146903 -0.563395 0.813021 157 104 111
-0.312888 -0.288011 0.309534 -0.488979 -0.764043 0.420879 152 72 78
-0.295818 -0.298075 0.310052 -0.507121 -0.723806 0.467902 155 84 91
-0.287538 -0.301521 0.285891 0.274463 -0.476147 0.835436 154 68 73
-0.272183 -0.31618 0.279605 0.279999 -0.650363 0.706136 165 96 103
-0.263686 -0.336982 0.267149 0.311412 -0.781081 0.541235 164 77 85
-0.24196 -0.330081 0.254283 0.282074 -0.867232 0.410297 171 117 124
0.0580807 -0.154167 -0.305075 0.324365 -0.425136 0.845013 185 153 143
-0.70342 0.295491 0.549777 -0.424566 -0.748537 0.509349 75 42 28
-0.70396 0.298352 0.527787 -0.082643 -0.840781 0.53503 65 34 23
-0.68772 0.300893 0.542634 -0.10103 -0.851813 0.514012 60 32 21
-0.666123 0.285313 0.513774 0.303294 -0.904719 0.29916 54 30 26
-0.668916 0.243677 0.517244 0.323604 -0.891455 0.317158 133 104 97
-0.649267 0.237328 0.51605 0.281092 -0.89716 0.340722 140 111 103
-0.643973 0.226393 0.499332 0.496966 -0.764075 0.411357 146 113 103
-0.627304 0.217993 0.497378 0.492306 -0.794456 0.355634 147 112 101
-0.633472 0.167868 0.507041 -0.561444 -0.0853333 0.823103 152 112 98
-0.604537 0.126507 0.484952 -0.826511 -0.25795 0.500341 155 112 96
-0.575878 0.100609 0.468963 0.111689 -0.495598 0.86134 160 115 99
-0.57597 0.069156 0.463292 -0.201067 -0.872971 0.444402 163 122 106
-0.555821 0.0663194 0.458442 0.635256 -0.562117 0.529598 162 117 100
-0.532637 0.0351977 0.423091 0.378731 -0.39059 0.839048 164 122 109
-0.508565 0.0379627 0.381569 0.219364 -0.975265 0.0271512 159 117 105
-0.490534 0.0531582 0.379036 0.0842387 -0.980852 0.175593 150 101 89
-0.486872 0.0220257 0.369414 0.0943427 -0.0746243 0.992739 154 107 97
-0.476407 -0.0155471 0.378557 0.543039 -0.214034 0.811972 145 95 82
-0.473022 -0.0464584 0.371357 0.47607 -0.055381 0.877662 149 91 87
-0.447539 -0.0902325 0.369353 0.262346 0.0228264 0.964704 162 115 120
-0.450462 -0.0680565 0.369623 0.0569427 -0.0585884 0.996657 157 110 114
-0.448001 -0.122689 0.371803 0.0975331 -0.0567474 0.993613 157 84 89
-0.427821 -0.130618 0.367684 0.148016 -0.0361505 0.988324 162 115 121
-0.409918 -0.169296 0.356552 0.0969457 -0.379571 0.92007 158 96 103
-0.405136 -0.184356 0.346169 -0.0652557 -0.521145 0.850969 147 63 69
-0.387269 -0.192222 0.346431 -0.345338 -0.597861 0.723397 161 102 109
-0.364655 -0.215804 0.338102 -0.393084 -0.642438 0.657844 163 111 118
-0.365636 -0.217205 0.335864 -0.277352 -0.584704 0.762363 161 106 112
-0.382073 -0.207087 0.337979 -0.177048 -0.541413 0.821903 153 81 87
-0.383724 -0.209665 0.335261 -0.0324 -0.455392 0.889702 149 68 73
-0.384521 -0.208872 0.335706 -0.0495886 -0.467436 0.882635 149 67 73
-0.359458 -0.231482 0.323367 -0.082387 -0.587004 0.805381 152 80 87
-0.379109 -0.227311 0.32553 0.064467 -0.441678 0.894854 142 43 48
-0.353598 -0.244932 0.309409 0.261436 -0.303262 0.916343 138 41 45
-0.333592 -0.250417 0.308972 -0.0304565 -0.553117 0.832547 153 79 86
-0.346469 -0.253553 0.293665 -0.0702586 -0.579066 0.812249 129 24 28
-0.325572 -0.29017 0.293982 -0.507635 -0.710598 0.487192 132 22 28
-0.307339 -0.298928 0.29252 -0.532153 -0.539474 0.652519 138 28 32
-0.302089 -0.307909 0.274673 -0.385516 -0.738375 0.553336 131 18 21
-0.282114 -0.320647 0.262448 0.0524115 -0.646876 0.760793 139 26 30
-0.281676 -0.366313 0.269223 0.167973 -0.749916 0.639853 152 32 36
-0.25731 -0.340631 0.24198 0.264232 -0.879974 0.394749 155 54 59
0.0388047 -0.178032 -0.30776 0.22461 -0.740399 0.63353 177 137 124
0.045215 -0.192803 -0.326803 0.597978 -0.551045 0.582042 181 141 127
-0.722302 0.293003 0.536692 -0.212108 -0.831585 0.5133 76 41 28
-0.721139 0.292252 0.514507 0.179292 -0.829114 0.529551 70 39 29
-0.70151 0.294794 0.506703 0.00768615 -0.791293 0.61139 72 42 36
-0.700868 0.292967 0.508997 0.0197291 -0.879438 0.475606 70 40 34
-0.687991 0.204234 0.520871 -0.0825837 -0.64358 0.76091 144 114 106
-0.687634 0.281581 0.490168 -0.0314784 -0.848353 0.528494 129 99 93
-0.640582 0.14359 0.504052 0.422976 -0.465566 0.777392 157 118 105
-0.621151 0.136794 0.489795 0.259394 -0.470396 0.84347 153 110 94
-0.626981 0.108971 0.476646 -0.784942 -0.226871 0.576537 158 115 97
-0.593584 0.0772954 0.467956 0.238051 -0.73169 0.638719 164 124 110
-0.594413 0.0562411 0.454785 -0.701235 -0.430389 0.568361 164 123 108
-0.574057 0.0581441 0.441581 -0.74433 -0.322199 0.584944 164 123 107
-0.572164 0.0356098 0.434803 -0.403921 -0.432953 0.805853 166 125 110
-0.536265 0.0198356 0.400879 0.267433 -0.95327 0.140551 160 120 107
-0.509289 0.012529 0.363909 0.0926231 -0.0661223 0.993503 145 97 86
-0.492788 -0.0454808 0.36111 -0.608911 -0.034683 0.79248 145 56 52
-0.472148 -0.114585 0.376545 0.0153011 -0.157851 0.987344 144 41 44
-0.471172 -0.0804006 0.37251 0.259974 0.0092745 0.965571 155 73 76
-0.4493 -0.144851 0.369835 0.0652811 -0.262108 0.962828 141 42 46
-0.429706 -0.159974 0.363287 0.241606 -0.359493 0.901328 149 63 69
-0.409972 -0.186966 0.344549 0.00916438 -0.439175 0.898355 141 44 49
-0.430215 -0.181088 0.344251 -0.120254 -0.579688 0.805916 129 18 22
-0.403404 -0.203069 0.334151 -0.0840003 -0.484176 0.87093 136 29 33
-0.372068 -0.239383 0.310808 -0.0527329 -0.687859 0.723926 138 35 40
-0.393665 -0.225794 0.310444 -0.372071 -0.623841 0.687303 129 16 20
-0.351554 -0.266978 0.275 -0.859727 -0.202634 0.468839 121 14 18
-0.321471 -0.303119 0.279674 -0.516555 -0.680058 0.520281 126 17 21
-0.325309 -0.296502 0.257611 -0.803643 -0.211339 0.556322 121 14 18
-0.323789 -0.324124 0.25425 -0.47814 -0.640598 0.600846 128 21 24
-0.308811 -0.307792 0.258951 -0.123727 -0.586559 0.8004 127 16 20
-0.298558 -0.325773 0.244665 0.131639 -0.754864 0.642535 135 17 21
-0.293508 -0.355148 0.241185 -0.229103 -0.897964 0.375731 132 21 24
-0.286592 -0.357957 0.222504 0.25057 -0.873434 0.417526 149 31 35
-0.746803 0.310532 0.534341 -0.47801 -0.719667 0.503572 80 38 26
-0.74469 0.32131 0.499969 -0.0270988 -0.812408 0.582459 85 47 32
-0.733351 0.29752 0.491491 -0.286938 -0.599134 0.747466 95 66 60
-0.724224 0.274169 0.480586 -0.265978 -0.513257 0.815979 136 105 97
-0.714711 0.284039 0.495934 0.0499549 -0.900632 0.431703 112 83 77
-0.702362 0.192875 0.510876 -0.205736 -0.724626 0.657716 150 118 109
-0.706275 0.254323 0.49091 -0.224373 -0.460618 0.858771 138 107 98
-0.703841 0.219545 0.493459 -0.275586 -0.517081 0.810358 148 116 106
-0.682335 0.195271 0.504594 0.218122 -0.749061 0.625565 154 121 111
-0.697432 0.17245 0.500952 -0.254538 -0.758143 0.600359 158 125 115
-0.676891 0.164999 0.49808 0.307622 -0.73048 0.609727 156 119 108
-0.657387 0.156573 0.488612 -0.37462 -0.0336452 0.926567 158 123 111
-0.630583 0.0908342 0.455063 -0.803612 -0.231343 0.548349 160 118 101
-0.609271 0.0539198 0.43988 -0.694532 -0.604531 0.390087 167 127 112
-0.589814 0.0498023 0.429243 0.101361 -0.581051 0.807531 164 123 107
-0.584034 0.0309169 0.419048 -0.682212 -0.32471 0.655096 164 125 111
-0.563332 0.0064313 0.416538 0.0139487 -0.997806 0.0647236 155 115 101
-0.556151 0.00439697 0.391641 0.170099 -0.970026 0.173543 152 112 98
-0.53473 0.0052481 0.384806 0.309427 -0.9427 0.124789 151 109 97
-0.529199 -0.00369927 0.365724 -0.281956 -0.462244 0.840732 151 106 95
-0.519585 -0.0102357 0.347115 -0.084509 -0.546151 0.833414 148 96 82
-0.488298 -0.119871 0.363757 -0.127093 -0.22174 0.966788 129 15 18
-0.482807 -0.140726 0.358159 0.0383433 -0.248718 0.967817 127 15 19
-0.448169 -0.172266 0.341871 -0.0679116 -0.643659 0.762293 123 13 16
-0.443829 -0.195713 0.325482 -0.229723 -0.813246 0.534658 124 14 18
-0.416704 -0.192176 0.310586 -0.639885 -0.675948 0.365572 123 13 16
-0.415074 -0.211339 0.303414 -0.459537 -0.560137 0.689255 127 15 18
-0.41232 -0.221383 0.289531 -0.537559 -0.706168 0.460821 129 16 19
-0.391422 -0.228322 0.286412 -0.825784 -0.248007 0.506531 126 15 19
-0.391164 -0.246789 0.274398 -0.643392 -0.64298 0.41548 118 13 18
-0.372928 -0.254836 0.275386 -0.471495 -0.786131 0.399611 118 14 17
-0.362711 -0.287879 0.250907 -0.0534005 -0.333965 0.941072 127 32 37
-0.368817 -0.278592 0.269807 -0.462501 -0.757296 0.46108 117 17 21
-0.339081 -0.313681 0.246584 -0.194664 -0.390409 0.899826 131 36 41
-0.339869 -0.309944 0.250697 -0.306891 -0.456594 0.835068 127 28 33
-0.312193 -0.336741 0.234337 0.0638397 -0.639716 0.765955 139 22 26
-0.33268 -0.330365 0.2361 0.00887537 -0.524249 0.851519 141 58 64
-0.307346 -0.356075 0.22384 0.192255 -0.722112 0.664524 146 47 52
-0.0511449 -0.267654 -0.22963 0.736234 -0.584906 0.34036 122 78 70
-0.0189485 -0.262393 -0.248 0.416353 -0.470688 0.777884 151 110 97
-0.0293488 -0.29286 -0.250147 0.584389 -0.563019 0.58438 148 107 94
-0.803199 0.268347 0.564593 -0.160397 -0.827865 0.537505 65 46 37
-0.800372 0.267227 0.565762 -0.230929 -0.806623 0.544088 64 44 35
-0.772525 0.321222 0.512919 0.241152 -0.92187 0.303318 79 41 31
-0.765164 0.314803 0.491607 -0.00950835 -0.806111 0.591687 78 41 31
-0.759377 0.311619 0.488568 -0.0369198 -0.728412 0.684143 81 46 36
-0.753845 0.298024 0.473694 0.0167815 -0.756512 0.653764 124 93 85
-0.738707 0.272287 0.485569 -0.299312 -0.747735 0.59271 136 106 99
-0.72795 0.208685 0.482754 0.232897 -0.324542 0.91675 146 111 100
-0.723762 0.232092 0.48799 -0.332267 -0.585371 0.739553 140 107 97
-0.706449 0.161761 0.487484 -0.147668 -0.308284 0.939763 157 120 108
-0.687077 0.153187 0.489258 -0.402353 -0.464762 0.788738 160 123 111
-0.680693 0.128887 0.485817 -0.297124 -0.270176 0.915818 158 118 104
-0.669686 0.105545 0.458078 -0.476268 -0.627448 0.616018 160 121 106
-0.648582 0.0948859 0.465646 -0.788906 -0.221862 0.573066 163 123 108
-0.627588 0.0751673 0.426485 -0.169661 -0.298576 0.939184 162 120 104
-0.623342 0.0498162 0.421707 -0.396108 -0.315173 0.862418 164 125 110
-0.578784 0.00653011 0.393798 0.245185 -0.968499 0.0435099 160 122 111
-0.572818 0.0109058 0.393147 0.00266223 -0.994457 0.105108 155 118 106
-0.572447 -0.0068917 0.380728 0.370919 -0.927476 0.046978 152 115 105
-0.548691 0.00214676 0.366636 0.132777 -0.90304 0.408521 149 107 96
-0.5616 -0.00193122 0.348908 -0.165321 -0.696861 0.697892 146 102 91
-0.543261 -0.0170284 0.358915 -0.309453 -0.34627 0.885627 137 87 74
-0.521678 -0.0391212 0.34481 -0.560944 -0.0581152 0.825811 141 68 58
-0.523453 -0.0633982 0.33622 -0.670941 -0.375931 0.639151 131 22 22
-0.503145 -0.137895 0.358341 -0.234389 -0.365773 0.900706 129 17 21
-0.504414 -0.0932123 0.347464 -0.806336 -0.169968 0.56651 137 17 21
-0.499682 -0.154517 0.346299 0.0415979 -0.237385 0.970525 132 27 32
-0.464122 -0.19491 0.331583 -0.206963 -0.716642 0.666025 131 20 24
-0.461741 -0.160567 0.324626 -0.830354 -0.282216 0.480486 129 15 19
-0.458216 -0.205981 0.315191 0.0393763 -0.771222 0.635347 130 21 25
-0.439305 -0.216596 0.317303 -0.327921 -0.911178 0.249442 127 16 19
-0.432191 -0.222766 0.296524 -0.24214 -0.901504 0.358689 124 16 20
-0.426253 -0.23 0.278114 -0.0272519 -0.739032 0.67312 121 19 22
-0.407589 -0.241674 0.280607 -0.17812 -0.76158 0.623113 120 15 19
-0.404755 -0.254215 0.262447 -0.279706 -0.677561 0.680203 126 36 42
-0.386633 -0.263541 0.26438 -0.233085 -0.594128 0.769859 118 22 27
-0.382168 -0.278099 0.252635 -0.272646 -0.603761 0.74909 133 53 60
-0.358398 -0.306689 0.243951 -0.298695 -0.418152 0.857864 139 67 73
-0.376705 -0.298229 0.240555 -0.450833 -0.624572 0.637698 144 91 99
-0.372897 -0.279419 0.225098 -0.546361 -0.837539 0.00403085 148 96 106
-0.351911 -0.325322 0.236408 -0.204874 -0.47004 0.858539 146 95 102
-0.346459 -0.337389 0.223006 -0.254551 -0.707368 0.659419 155 114 122
-0.327474 -0.34868 0.225358 0.0582873 -0.698555 0.713179 154 74 80
-0.31388 -0.355972 0.175924 0.196836 -0.924071 0.327641 171 135 144
-0.175694 -0.392368 -0.0210021 0.541674 -0.836321 -0.0845867 93 46 43
-0.0420141 -0.314272 -0.235863 0.568445 -0.759646 0.315924 128 83 73
-0.0271085 -0.291392 -0.285898 0.617946 -0.667117 0.416051 173 136 122
-0.817494 0.259526 0.55034 -0.110153 -0.889486 0.443486 63 43 35
-0.785055 0.319908 0.493841 0.0800532 -0.721287 0.687994 75 36 27
-0.780427 0.301218 0.483299 0.0807984 -0.693979 0.715448 96 62 55
-0.774902 0.286014 0.466921 -0.0365543 -0.234832 0.971349 141 111 104
-0.750459 0.275924 0.463919 0.055077 -0.705789 0.706278 141 108 99
-0.746743 0.186982 0.481733 -0.21196 -0.114705 0.970524 154 120 109
-0.727139 0.174637 0.484317 -0.429544 -0.383661 0.817493 154 118 106
-0.688127 0.0906602 0.446423 -0.464239 -0.365876 0.806609 157 117 102
-0.665835 0.085186 0.449688 -0.491955 -0.196708 0.848107 162 123 109
-0.664486 0.0540569 0.431605 -0.140393 -0.929357 0.341447 167 130 118
-0.643092 0.0564762 0.422577 0.115447 -0.576207 0.809109 165 126 112
-0.63623 0.0415157 0.409019 0.209457 -0.796855 0.5667 160 122 108
-0.628692 0.0181417 0.39328 -0.101996 -0.549082 0.829521 160 127 116
-0.595837 -0.00809093 0.382753 0.374911 -0.925994 0.0444718 151 116 106
-0.575243 -0.0012403 0.33127 -0.596339 -0.596336 0.537367 149 109 99
-0.556638 -0.0228242 0.342647 -0.381538 -0.408029 0.829422 134 79 68
-0.540082 -0.0498966 0.332311 -0.56511 -0.403008 0.719886 135 63 54
-0.54023 -0.0725048 0.323934 -0.60382 -0.375427 0.703176 135 46 49
-0.519863 -0.136069 0.344617 -0.00292138 -0.0938656 0.995581 139 47 54
-0.538098 -0.104584 0.32887 -0.260866 -0.0564388 0.963724 151 90 96
-0.519021 -0.164223 0.342782 0.109543 -0.137811 0.984382 152 94 100
-0.499264 -0.175524 0.337651 0.126447 -0.321585 0.9384 147 69 76
-0.482047 -0.187433 0.331662 0.148304 -0.472655 0.868679 140 43 49
-0.472393 -0.212501 0.301682 -0.0271258 -0.870263 0.491839 150 75 81
-0.473119 -0.188236 0.30473 -0.615829 -0.755463 0.223677 157 83 91
-0.451981 -0.215939 0.298431 -0.0893683 -0.877421 0.471324 135 27 31
-0.445784 -0.227592 0.282377 -0.109518 -0.932411 0.344403 131 44 50
-0.421643 -0.245129 0.265161 -0.298196 -0.8018 0.517877 132 50 56
-0.417176 -0.256422 0.248742 -0.430248 -0.76146 0.484836 136 87 95
-0.399953 -0.267977 0.250256 -0.40295 -0.717923 0.567642 137 78 85
-0.41219 -0.259685 0.226944 -0.751406 -0.279135 0.59789 140 104 112
-0.394715 -0.269289 0.226979 -0.700784 -0.411054 0.58304 142 103 112
-0.37097 -0.313532 0.229857 -0.468305 -0.532146 0.705345 147 105 112
-0.389913 -0.280554 0.212209 -0.835678 -0.187614 0.516181 145 106 114
-0.368001 -0.329557 0.218381 -0.470469 -0.557975 0.683609 153 117 125
-0.369487 -0.356023 0.218294 -0.464743 -0.682115 0.564565 159 125 132
-0.340994 -0.353778 0.210757 -0.342461 -0.88749 0.308351 162 126 134
-0.342637 -0.38139 0.212495 -0.128439 -0.610662 0.781406 170 137 146
-0.332445 -0.376357 0.169875 0.144885 -0.986055 0.0818756 169 128 136
-0.155279 -0.376352 -0.0628244 0.533323 -0.833601 0.143791 96 49 45
-0.0633252 -0.318648 -0.250392 0.583222 -0.803707 0.117925 146 105 95
-0.0635867 -0.36474 -0.233051 0.379515 -0.723606 0.576509 148 107 97
-0.0530546 -0.35128 -0.264892 -0.03194 -0.773612 0.632854 161 120 107
-0.834643 0.278112 0.511785 -0.089698 -0.927416 0.363118 59 34 26
-0.805632 0.298517 0.491442 -0.0379569 -0.666461 0.744573 76 39 32
-0.801195 0.290033 0.475802 0.0726134 -0.644643 0.761028 113 81 75
-0.776078 0.251392 0.465831 -0.550963 -0.117886 0.826161 152 120 110
-0.773355 0.192549 0.481731 -0.21482 -0.0578461 0.974939 146 111 99
-0.763502 0.172959 0.471793 -0.393086 -0.388258 0.833511 152 117 107
-0.743539 0.163721 0.471804 0.217944 -0.557651 0.800952 156 121 108
-0.740286 0.129307 0.46169 -0.204069 -0.958348 0.199813 156 119 106
-0.718337 0.125915 0.457389 -0.295265 -0.923492 0.244909 159 121 108
-0.704992 0.111901 0.433349 -0.260656 -0.881925 0.392769 158 118 101
-0.68675 0.0517952 0.439959 -0.411663 -0.194476 0.890344 162 125 112
-0.68024 0.0413553 0.424172 -0.212931 -0.553052 0.805477 158 122 108
-0.657538 0.0496058 0.410141 -0.145306 -0.883576 0.445175 168 133 121
-0.667216 0.0582104 0.384782 -0.692245 -0.711277 0.121985 155 117 104
-0.651217 0.0424912 0.385297 -0.64308 -0.729078 0.234292 158 122 109
-0.621674 0.0155819 0.36424 -0.660839 -0.700246 0.27009 154 119 111
-0.595337 0.0125823 0.32688 -0.549053 -0.608254 0.573208 150 115 106
-0.573593 -0.0365604 0.335342 -0.415785 -0.507428 0.754744 131 77 66
-0.556649 -0.058451 0.319509 -0.355407 -0.471346 0.807167 134 72 66
-0.555923 -0.105492 0.314252 -0.424741 -0.308928 0.850975 156 131 136
-0.555904 -0.10542 0.314186 -0.424891 -0.307607 0.851379 156 131 136
-0.5402 -0.145587 0.340084 0.0173178 -0.0834416 0.996362 156 122 128
-0.533614 -0.168816 0.326371 -0.41712 -0.585029 0.695523 159 129 137
-0.536297 -0.164062 0.328888 -0.0362758 -0.104043 0.993911 159 131 139
-0.516901 -0.179943 0.328986 -0.378033 -0.64155 0.667462 158 118 126
-0.511312 -0.189231 0.311225 -0.382171 -0.640351 0.666255 158 125 134
-0.49107 -0.205696 0.30194 -0.255151 -0.83933 0.480024 156 118 126
-0.465341 -0.219438 0.281622 -0.219351 -0.931878 0.288946 145 85 93
-0.477651 -0.215942 0.259599 -0.312655 -0.922827 0.225028 146 114 125
-0.458297 -0.225745 0.260819 -0.34071 -0.8802 0.330402 144 101 110
-0.455732 -0.266601 0.272789 -0.625896 -0.712325 0.317564 143 110 119
-0.452222 -0.235661 0.242897 -0.462835 -0.784537 0.412656 145 113 123
-0.434677 -0.244275 0.247591 -0.452037 -0.806496 0.381086 139 98 105
-0.450736 -0.277973 0.255871 -0.617831 -0.718486 0.319474 145 108 117
-0.422008 -0.261472 0.206807 -0.531272 -0.712602 0.458203 144 99 107
-0.413457 -0.279157 0.195458 -0.593395 -0.441982 0.672707 141 73 80
-0.389189 -0.330168 0.228342 -0.41465 -0.70617 0.573924 148 100 108
-0.403139 -0.335484 0.215884 -0.507448 -0.657822 0.556566 147 76 84
-0.382603 -0.343296 0.211455 -0.343559 -0.604903 0.718373 157 116 124
-0.360229 -0.356175 0.189147 -0.791615 -0.256311 0.554662 170 129 139
-0.201729 -0.473423 -0.00934765 0.351814 -0.856192 0.378368 167 134 129
-0.112142 -0.375876 -0.178145 0.539608 -0.829397 0.144652 110 62 51
-0.0663567 -0.377792 -0.256539 0.139887 -0.504013 0.852293 164 124 111
-0.0666291 -0.383495 -0.272149 0.0172018 -0.633837 0.773275 165 124 111
-0.857914 0.282394 0.516025 -0.0810915 -0.869552 0.487137 67 50 40
-0.849845 0.267664 0.49723 0.0462651 -0.902433 0.428337 68 40 34
-0.820471 0.298248 0.47488 -0.0283517 -0.684873 0.728111 93 59 55
-0.798903 0.267775 0.455554 -0.514486 -0.093604 0.852374 145 114 105
-0.801977 0.226015 0.460004 -0.352369 -0.100819 0.930415 147 113 103
-0.788849 0.207356 0.472195 -0.289069 -0.076685 0.954232 150 116 105
-0.7834 0.183978 0.466917 -0.342072 -0.224719 0.912407 148 113 100
-0.780459 0.157679 0.462907 -0.446927 -0.411309 0.794406 152 116 107
-0.76013 0.152128 0.462521 -0.323162 -0.545031 0.773632 158 124 113
-0.755496 0.126773 0.445658 -0.219659 -0.973208 0.0679373 161 125 113
-0.74711 0.121831 0.425123 -0.104996 -0.993485 0.0443023 160 121 107
-0.712036 0.0923858 0.428946 -0.259779 0.0101493 0.965615 155 114 97
-0.70026 0.0448719 0.426653 -0.236934 -0.636069 0.734356 159 123 109
-0.706621 0.0708386 0.423035 -0.344217 -0.246665 0.905908 159 121 107
-0.691642 0.0437561 0.402798 -0.716474 -0.592248 0.368658 157 121 109
-0.668108 0.0403342 0.370691 -0.387612 -0.892558 -0.230428 153 118 106
-0.634791 0.0182661 0.344444 0.0725842 -0.99295 0.0937105 143 110 100
-0.630276 0.00985375 0.322125 -0.207914 -0.912853 0.351386 131 95 86
-0.610095 0.00881492 0.312228 -0.560516 -0.541022 0.626991 134 95 85
-0.6071 -0.00522228 0.295879 -0.616979 -0.688545 0.381107 127 83 70
-0.581372 -0.102752 0.340494 -0.478349 -0.492789 0.726871 140 103 100
-0.571014 -0.114702 0.300876 -0.510972 -0.407285 0.756985 158 138 141
-0.553976 -0.131586 0.312847 -0.541856 -0.313171 0.779946 161 138 144
-0.546377 -0.155101 0.299371 -0.822687 -0.344138 0.452499 166 140 148
-0.528553 -0.179617 0.310093 -0.387159 -0.585429 0.712307 160 131 139
-0.524591 -0.194338 0.297615 -0.490787 -0.676086 0.549577 158 128 137
-0.510181 -0.226449 0.304386 -0.090282 -0.990005 -0.108344 161 129 139
-0.506787 -0.193467 0.251888 -0.696546 -0.588288 0.41078 151 119 130
-0.488964 -0.207827 0.233661 -0.622573 -0.726205 0.291597 148 107 118
-0.457684 -0.235927 0.199948 -0.538097 -0.841763 0.0434434 142 75 83
-0.439159 -0.247722 0.202406 -0.38936 -0.79585 0.463706 147 93 102
-0.431628 -0.291557 0.185723 -0.183423 -0.0792859 0.979831 118 22 26
-0.437805 -0.264341 0.188088 -0.638059 -0.496341 0.588665 118 22 26
-0.435425 -0.273697 0.192189 -0.47587 -0.331534 0.814637 117 20 23
-0.420492 -0.326034 0.217363 -0.00243934 -0.689211 0.724557 132 39 44
-0.417954 -0.341837 0.205032 0.0182585 -0.597471 0.801683 136 43 48
-0.39452 -0.345982 0.194687 -0.111362 -0.615397 0.780311 154 89 96
-0.374177 -0.352243 0.166656 -0.80368 -0.303982 0.51156 160 85 93
-0.378969 -0.361322 0.14737 -0.455319 -0.88446 -0.102055 146 27 33
-0.349935 -0.373783 0.144205 -0.423657 -0.903683 -0.0622215 163 84 90
-0.247658 -0.473748 0.0202493 0.73719 -0.5143 0.43823 171 137 134
-0.246562 -0.44883 0.00290425 0.652511 -0.757617 0.0156645 173 139 132
-0.213118 -0.46034 -0.0303226 0.572137 -0.576054 0.583798 176 142 132
-0.198903 -0.471766 -0.0517015 0.117202 -0.665806 0.736862 176 143 132
-0.0861583 -0.394939 -0.256398 0.267918 -0.735505 0.622296 142 98 86
-0.870303 0.269087 0.493568 0.451008 -0.87517 -0.175128 54 34 27
-0.829419 0.271909 0.454866 -0.239759 -0.0209078 0.970607 135 101 94
-0.821573 0.197083 0.461394 -0.187732 -0.156734 0.969635 143 107 95
-0.807862 0.181546 0.445604 -0.105335 -0.53093 0.840843 148 115 103
-0.779073 0.133296 0.445106 -0.255763 -0.966368 0.0268004 153 119 107
-0.774229 0.109778 0.439821 -0.0435911 -0.997194 0.0608487 154 117 105
-0.727788 0.0826297 0.414903 -0.422595 -0.288777 0.859082 159 122 108
-0.709107 0.0598958 0.395035 -0.453539 -0.880341 -0.138933 157 121 109
-0.695628 0.055121 0.369325 0.1973 -0.979537 -0.0397535 153 116 104
-0.693438 0.0579005 0.337377 0.11899 -0.935602 0.332402 152 118 107
-0.655764 0.0363376 0.332371 0.404418 -0.912582 0.0603218 148 116 107
-0.64643 -0.00110653 0.313622 0.502916 -0.586757 0.634659 133 98 89
-0.628137 -0.000301385 0.301312 -0.600527 -0.590549 0.53909 130 92 80
-0.620139 -0.00131665 0.275347 -0.280543 -0.827588 0.486202 143 103 91
-0.610755 -0.105285 0.313601 -0.166007 -0.407128 0.898158 137 102 96
-0.608693 -0.111827 0.311316 -0.163044 -0.511618 0.843602 140 107 104
-0.598091 -0.112735 0.332258 -0.289015 -0.764555 0.576129 137 103 97
-0.599361 -0.102696 0.331945 -0.343345 -0.656369 0.671785 138 101 95
-0.607623 -0.0527136 0.289525 -0.599341 -0.0385672 0.799564 137 92 77
-0.591958 -0.124749 0.316765 -0.39326 -0.432299 0.811458 148 123 125
-0.564104 -0.139259 0.29881 -0.812932 -0.186912 0.551548 164 140 146
-0.580957 -0.15739 0.297809 -0.128321 -0.514907 0.847588 159 131 138
-0.565707 -0.176574 0.308942 -0.199176 -0.592884 0.780268 162 132 141
-0.561786 -0.191971 0.297588 -0.290079 -0.884916 0.364385 157 123 133
-0.527649 -0.189961 0.257133 -0.620804 -0.685204 0.380917 153 116 126
-0.521989 -0.201342 0.240943 -0.202596 -0.875549 0.438599 139 79 88
-0.482423 -0.216486 0.209474 -0.558065 -0.788744 0.257769 135 60 69
-0.473378 -0.232283 0.182816 -0.411331 -0.736565 0.536916 124 20 25
-0.469536 -0.237895 0.181841 -0.328881 -0.688961 0.645887 123 19 24
-0.452939 -0.248922 0.185069 -0.335693 -0.725448 0.600862 122 23 28
-0.454851 -0.250955 0.179408 -0.556899 -0.570593 0.603562 120 24 29
-0.453614 -0.275772 0.177651 -0.463047 -0.301094 0.833625 110 15 19
-0.436759 -0.335946 0.205362 0.00950128 -0.609037 0.793085 117 15 18
-0.429052 -0.346866 0.188639 -0.248571 -0.625446 0.739615 123 15 19
-0.410023 -0.349071 0.184353 -0.383066 -0.635627 0.670252 134 30 34
-0.422382 -0.35646 0.171112 -0.178299 -0.50943 0.841838 129 17 20
-0.232759 -0.485506 -0.00919549 0.585409 -0.615762 0.527384 182 148 139
-0.236374 -0.474469 -0.0301729 0.057009 -0.713497 0.698334 185 147 134
-0.884114 0.260451 0.481343 0.0833744 -0.582769 0.80835 57 36 30
-0.876976 0.242142 0.469725 0.158474 -0.519362 0.839732 107 80 75
-0.85455 0.246769 0.457191 -0.0901559 -0.0923256 0.991639 137 106 98
-0.847817 0.235465 0.440582 -0.0397633 0.00884452 0.99917 139 105 94
-0.829798 0.186131 0.445284 -0.27153 -0.380583 0.883984 144 109 97
-0.81998 0.146539 0.439011 0.09722 0.0219226 0.995022 141 108 97
-0.787329 0.116257 0.415634 -0.100792 -0.976923 0.188314 148 113 99
-0.781315 0.102967 0.401788 -0.377184 -0.921622 0.0913557 150 115 101
-0.75888 0.0927887 0.400479 -0.3049 -0.892781 0.331629 152 118 105
-0.748945 0.00389691 0.414743 0.223174 -0.743499 0.630399 157 125 115
-0.726498 0.0531705 0.384901 -0.0212137 -0.98229 -0.186163 155 120 107
-0.710015 0.0467574 0.326231 0.0564019 -0.949351 0.309115 146 116 107
-0.685041 0.0453826 0.322842 -0.350477 -0.934475 -0.062634 149 119 111
-0.678032 0.0314946 0.311435 -0.219589 -0.974687 -0.0420083 146 117 111
-0.669109 0.0225522 0.294458 -0.118726 -0.976032 -0.182385 139 107 99
-0.648436 0.00349907 0.276551 -0.309295 -0.921523 0.234801 135 96 85
-0.637586 -0.0189435 0.273234 -0.771186 -0.16796 0.614053 141 101 87
-0.627174 -0.114265 0.301552 -0.298139 -0.550782 0.779584 136 98 91
-0.623093 -0.0660855 0.282131 -0.475917 -0.0286329 0.879024 139 95 81
-0.623111 -0.0661501 0.282192 -0.47633 -0.0307406 0.878728 139 95 81
-0.623111 -0.0661501 0.282192 -0.47633 -0.0307406 0.878728 139 95 81
-0.603851 -0.126394 0.299062 -0.227467 -0.638227 0.735476 149 122 125
-0.607686 -0.122629 0.302944 -0.440733 -0.515873 0.734595 145 117 118
-0.595647 -0.165087 0.286315 -0.298282 -0.807259 0.509276 156 106 113
-0.60459 -0.148857 0.297033 -0.475612 -0.677025 0.561633 152 120 124
-0.599154 -0.147522 0.293848 -0.188537 -0.44384 0.876048 154 125 129
-0.57709 -0.17332 0.286799 -0.138436 -0.872673 0.468272 158 120 128
-0.576401 -0.198977 0.284663 0.0951459 -0.888295 0.44931 150 100 108
-0.552724 -0.199832 0.275289 -0.326647 -0.9246 0.195998 150 108 116
-0.566459 -0.195174 0.252212 -0.277527 -0.951088 0.135686 134 65 72
-0.568519 -0.198329 0.255095 -0.185616 -0.974102 -0.12912 138 69 76
-0.541834 -0.198007 0.245276 -0.25287 -0.962058 0.102478 133 66 73
-0.542619 -0.201291 0.248756 -0.266057 -0.954749 0.132922 133 66 73
-0.534115 -0.203023 0.223273 -0.197895 -0.755117 0.625009 109 19 25
-0.516788 -0.212206 0.224284 -0.153188 -0.824841 0.544216 115 27 33
-0.511648 -0.223886 0.208597 -0.300464 -0.71619 0.629915 116 16 20
-0.491123 -0.221931 0.182542 -0.624206 -0.626471 0.466799 124 17 22
-0.477972 -0.251386 0.160669 -0.804352 -0.125833 0.580675 113 15 19
-0.469198 -0.258284 0.164537 -0.35181 -0.610744 0.709381 111 15 18
-0.462416 -0.28739 0.152668 -0.515913 -0.119095 0.848323 120 19 24
-0.44591 -0.30603 0.159247 -0.544933 -0.19056 0.816538 121 14 19
-0.435478 -0.336136 0.156412 -0.778365 -0.19493 0.596783 129 16 21
-0.897708 0.242766 0.447371 0.0568567 -0.149952 0.987057 90 51 44
-0.870584 0.239572 0.446392 -0.0670763 -0.155884 0.985495 135 104 96
-0.871592 0.203609 0.442184 -0.46613 -0.179308 0.866355 132 97 87
-0.845856 0.165852 0.439428 0.155259 -0.0857122 0.984148 140 108 98
-0.845437 0.178165 0.431037 -0.416574 -0.453198 0.788085 139 105 95
-0.849598 0.115054 0.455667 -0.451017 -0.638279 0.623845 142 112 103
-0.830031 0.114191 0.448401 -0.232928 -0.567496 0.789742 142 114 105
-0.807967 0.125612 0.414411 -0.223808 -0.953769 0.200583 149 117 104
-0.802839 0.111943 0.402121 -0.221175 -0.954816 0.198516 141 107 92
-0.768082 0.0304204 0.421258 -0.437881 -0.698167 0.566413 148 116 103
-0.784105 0.070264 0.388966 -0.174866 -0.63229 0.754739 154 121 109
-0.759234 0.0312815 0.365266 0.380386 -0.909332 0.168587 159 128 123
-0.734274 0.0263715 0.360669 0.653601 -0.753613 0.069808 140 106 94
-0.728726 0.0437794 0.320381 0.438505 -0.87753 0.194049 143 112 104
-0.663286 0.000712865 0.261181 -0.368191 0.0271156 0.929355 141 102 90
-0.642928 -0.0483218 0.27136 -0.46862 0.0128164 0.883307 139 96 81
-0.660433 -0.0220785 0.249426 -0.299246 -0.320718 0.898661 144 103 90
-0.641146 -0.121591 0.287885 -0.321832 -0.620657 0.714988 133 88 80
-0.637087 -0.0739164 0.269628 -0.67629 -0.214686 0.704656 139 94 80
-0.622648 -0.130813 0.291198 -0.360617 -0.430578 0.82738 137 97 96
-0.636263 -0.137873 0.279104 -0.480576 -0.555291 0.678749 130 67 64
-0.618591 -0.152334 0.282204 -0.404116 -0.748331 0.526014 139 72 75
-0.594669 -0.176222 0.2406 -0.128659 -0.991689 -1.89529e-05 128 28 32
-0.587675 -0.180893 0.24762 -0.10944 -0.987077 -0.117054 131 38 44
-0.584786 -0.184895 0.249329 -0.123192 -0.985074 -0.120217 132 43 49
-0.574902 -0.204071 0.237791 -0.0350773 -0.968674 -0.245843 115 23 28
-0.548679 -0.211661 0.211835 -0.400924 -0.502428 0.766046 115 17 21
-0.526174 -0.233452 0.198892 -0.215122 -0.714351 0.665902 128 17 22
-0.543753 -0.223774 0.19641 -0.353862 -0.637681 0.684211 134 31 37
-0.505324 -0.245541 0.15112 -0.0292703 -0.521563 0.852711 117 16 20
-0.511031 -0.227785 0.160002 -0.00429311 -0.217618 0.976025 130 18 22
-0.493882 -0.257915 0.149749 -0.619781 -0.574883 0.534211 113 14 19
-0.498975 -0.261206 0.139441 -0.500933 -0.696194 0.514179 123 30 34
-0.47792 -0.271973 0.150481 -0.636956 -0.549041 0.541147 117 21 26
-0.460577 -0.313702 0.143476 -0.494332 -0.209212 0.843722 137 54 59
-0.464121 -0.356597 0.152832 0.0737353 -0.257529 0.963453 143 65 70
-0.437889 -0.376454 0.139799 0.351515 -0.654328 0.669547 154 63 70
-0.431748 -0.388382 0.120497 0.19394 -0.935903 0.294062 160 70 76
-0.936576 0.241822 0.46808 -0.288026 -0.37429 0.881447 97 49 37
-0.892456 0.221603 0.439579 -0.239325 -0.109799 0.964711 98 54 45
-0.889183 0.184041 0.435649 -0.331207 -0.296348 0.895812 95 54 44
-0.863299 0.153943 0.431253 -0.44681 -0.576875 0.683795 129 96 87
-0.861432 0.154153 0.429682 -0.399243 -0.591501 0.700522 131 98 89
-0.861038 0.116336 0.434556 0.15824 -0.524304 0.836699 133 105 98
-0.838566 0.0971821 0.404616 0.553693 -0.396786 0.73211 143 116 107
-0.824982 0.0717107 0.399671 0.0885792 -0.670581 0.736528 145 116 107
-0.817778 0.110951 0.396325 -0.101133 0.0290392 0.994449 150 118 108
-0.802867 0.0815074 0.384798 -0.261444 -0.524586 0.81022 151 119 108
-0.785294 0.0238623 0.400515 -0.20711 -0.823713 0.527829 149 119 109
-0.773064 0.00767406 0.368197 -0.185796 -0.961051 -0.204601 150 117 108
-0.752719 0.0342149 0.333227 0.353127 -0.904808 0.237957 139 108 97
-0.748984 0.0249519 0.311631 0.374959 -0.900467 0.220376 137 103 95
-0.718775 0.0255902 0.275843 -0.599601 -0.712219 0.364997 130 94 85
-0.688475 0.0160707 0.24579 -0.279727 0.0533181 0.958598 138 98 87
-0.684507 -0.0164819 0.250992 -0.455513 0.0112355 0.890158 140 98 86
-0.649024 -0.0737633 0.249417 -0.675543 -0.129824 0.725801 140 96 84
-0.648981 -0.073568 0.249238 -0.675438 -0.128118 0.726202 140 96 84
-0.648981 -0.073568 0.249238 -0.675438 -0.128118 0.726202 140 96 84
-0.648604 -0.136094 0.2581 -0.447814 -0.555341 0.700755 123 57 52
-0.632043 -0.154422 0.266618 -0.481084 -0.649555 0.588758 121 29 30
-0.628764 -0.169223 0.252726 -0.4814 -0.649643 0.588403 119 21 21
-0.57937 -0.206309 0.196213 -0.470339 -0.470488 0.746608 139 71 78
-0.562174 -0.216961 0.19795 -0.440126 -0.58829 0.678383 137 56 61
-0.538883 -0.237937 0.183535 -0.145171 -0.72897 0.668975 140 48 53
-0.557516 -0.231473 0.184406 -0.347335 -0.691523 0.633367 154 99 107
-0.532254 -0.253285 0.170376 -0.241289 -0.752915 0.61229 136 47 54
-0.527252 -0.267113 0.155713 -0.331305 -0.80599 0.490527 140 74 82
-0.499248 -0.260986 0.139429 -0.141615 -0.090766 0.985752 124 32 37
-0.492353 -0.279785 0.133116 -0.390035 -0.0611792 0.918765 145 87 93
-0.48131 -0.362777 0.144207 -0.0791933 -0.371271 0.925141 156 120 127
-0.457289 -0.371683 0.140698 0.302078 -0.212506 0.929296 156 95 102
-0.475732 -0.377851 0.135594 -0.1167 -0.529395 0.840311 160 133 141
-0.454844 -0.389981 0.127178 -0.159984 -0.985853 -0.0499884 168 112 119
-0.334959 -0.474556 0.00127092 -0.331813 -0.013641 0.943246 184 146 136
-0.960253 0.246418 0.457137 -0.115013 -0.926022 0.359519 88 48 38
-0.922782 0.227817 0.444018 -0.0727821 0.00486489 0.997336 101 51 37
-0.921031 0.178544 0.449513 -0.178809 -0.317747 0.931164 91 44 33
-0.883208 0.16494 0.426645 -0.389894 -0.404542 0.827242 94 53 44
-0.878637 0.148263 0.414629 -0.761091 -0.444782 0.472134 93 51 44
-0.854509 0.0965787 0.424981 0.562172 -0.392421 0.72799 141 113 107
