ply
format ascii 1.0
element vertex 248
property float x
property float y
property float z
property float nx
property float ny
property float nz
property uchar diffuse_red
property uchar diffuse_green
property uchar diffuse_blue
end_header
0.706729 0.47829 0.389224 0.991869 -0.124147 -0.0280087 187 148 153
0.688035 0.642683 0.36951 0.925574 -0.19144 -0.326594 190 161 167
0.690097 0.673635 0.346559 0.82384 -0.258746 -0.504318 151 44 47
0.699362 0.471132 0.332759 0.894686 -0.206003 -0.396357 188 159 163
0.643039 0.00621251 0.454046 0.852054 -0.521548 -0.0446092 187 167 162
0.688249 0.515899 0.305453 0.778198 -0.0502847 -0.626002 141 20 22
0.674598 0.528869 0.295883 0.722793 -0.0826619 -0.686103 132 17 19
0.581072 -0.0326973 0.474267 0.279594 -0.940028 -0.195382 200 174 168
0.641697 -0.00111062 0.385883 0.620978 -0.702268 -0.348145 202 172 163
0.677077 0.0838369 0.24307 0.919295 -0.353566 -0.17288 187 151 137
0.611235 0.569925 0.245531 0.456732 0.198912 -0.867082 128 17 18
0.667692 0.0534466 0.152679 0.713767 -0.0105212 -0.700304 182 145 130
0.703652 -0.311619 0.122425 0.997623 -0.0688549 0.00278316 192 175 170
0.563359 0.447488 0.111466 0.734592 0.109595 -0.6696 171 157 151
0.669385 -0.352509 0.0820973 0.876254 -0.314318 -0.365216 190 175 171
0.641757 -0.38741 0.0565646 0.298338 -0.893763 -0.334936 174 156 148
0.616115 -0.467594 0.100286 0.335943 -0.459922 -0.821957 70 40 34
0.579312 -0.565783 0.154745 0.274094 -0.863163 -0.424055 74 44 38
0.597046 -0.244299 -0.0268986 0.808224 0.0959545 -0.581005 180 163 156
0.416092 -0.600239 0.236972 0.453764 -0.889596 -0.0521225 183 168 166
0.50422 0.0626781 -0.0343023 0.431101 -0.222745 -0.874378 151 115 97
0.488429 0.083994 -0.0577919 0.703407 0.085995 -0.705565 168 139 126
0.0832541 0.710534 0.12184 0.376879 -0.84767 -0.373388 74 41 27
0.472777 -0.202091 -0.118379 0.433266 -0.169945 -0.885098 157 140 132
0.465419 -0.27107 -0.118796 0.295703 0.117614 -0.948012 152 135 125
0.387813 -0.542026 0.0276131 0.199709 -0.963413 0.178749 172 163 158
0.445567 -0.405304 -0.0903049 0.296553 -0.625917 -0.721308 167 156 152
0.443538 -0.213123 -0.135912 0.560568 -0.460936 -0.687968 164 147 140
0.238224 0.118537 -0.131584 0.606424 -0.0390312 -0.794183 129 55 56
0.426893 -0.285562 -0.133497 0.210215 0.114575 -0.970918 162 146 138
0.396206 -0.236273 -0.145651 0.205724 -0.423418 -0.882267 157 141 134
0.253455 0.144808 -0.119704 0.443004 0.152182 -0.883509 119 17 19
0.364099 -0.241923 -0.147186 -0.000792379 -0.265212 -0.96419 163 149 142
0.285291 -0.478953 -0.00901326 0.0205012 -0.561365 -0.827314 171 163 161
0.240316 0.0463486 -0.123991 0.950762 -0.0603344 -0.303995 146 117 114
0.197255 0.275575 -0.148865 0.971729 -0.150263 -0.182106 176 155 159
0.21609 0.032691 -0.15445 0.703297 -0.0780684 -0.706597 116 24 25
0.214961 0.0613032 -0.166203 0.902352 0.090593 -0.421371 140 88 87
0.228152 -0.203304 -0.140012 -0.193531 -0.307727 -0.931584 164 143 139
0.170973 0.239998 -0.213399 0.704704 0.211568 -0.677223 114 13 17
0.201491 0.10729 -0.231029 0.956242 -0.0351267 -0.290461 178 140 145
0.190126 0.0694344 -0.228772 0.854575 -0.353482 -0.380462 154 29 32
0.167984 0.0154185 -0.221511 0.840431 -0.428522 -0.331729 151 38 40
-0.140939 0.716963 -0.158558 0.725356 -0.676576 -0.126901 88 51 34
0.106534 0.244806 -0.264312 0.320509 0.141711 -0.936586 125 22 23
-0.0833243 -0.334432 0.0791455 -0.0429536 -0.796777 -0.602744 125 50 57
0.119171 -0.141785 -0.193491 0.721935 -0.311805 -0.617728 116 14 16
0.0937993 -0.189747 -0.159373 0.436103 -0.87149 -0.224319 138 70 74
0.00490238 -0.285497 -0.062428 0.464051 -0.772317 -0.433801 119 20 23
0.0678444 -0.199386 -0.165698 0.379566 -0.911337 -0.159357 153 132 138
0.0111777 0.337181 -0.294408 0.829014 0.0966811 -0.550808 168 133 122
0.0789141 0.101977 -0.325739 0.96473 0.199016 -0.172301 165 71 76
0.0752819 0.0440199 -0.316801 0.93712 -0.184444 -0.296291 157 86 89
0.0668895 -0.174981 -0.203033 0.286624 -0.587888 -0.756463 152 124 129
0.0627395 -0.0994277 -0.258714 0.491755 -0.718632 -0.491675 114 18 21
-0.098123 -0.335815 -0.0585523 0.825443 -0.531912 -0.188979 114 56 57
-0.0509518 -0.289197 -0.103021 0.74971 -0.431598 -0.501655 132 87 89
-0.0966432 -0.306132 -0.0874085 0.374631 -0.739243 -0.559616 119 73 74
-0.0699911 -0.249767 -0.128862 0.159501 -0.565445 -0.809217 120 77 80
-0.0396076 0.39058 -0.374898 0.750212 0.0171389 -0.660975 163 129 117
-0.189708 -0.402777 -0.030677 0.844067 -0.462956 0.270597 109 67 64
0.0219358 0.190257 -0.436683 0.969844 0.189515 -0.153255 187 165 170
-0.283992 -0.490819 0.0320468 0.556172 -0.824807 0.101815 180 148 143
-0.031034 0.099972 -0.574722 0.87615 -0.477373 -0.0668987 149 83 89
-0.0321561 0.119706 -0.609664 0.943675 -0.283267 -0.170989 146 24 28
0.12831 -0.342139 -0.589351 0.805736 -0.567999 -0.167829 183 152 143
-0.0434236 0.123065 -0.639887 0.86971 -0.0693976 -0.488659 140 16 19
0.118212 -0.324469 -0.635359 0.886028 -0.30441 -0.349698 184 155 147
0.116397 -0.179627 -0.68767 0.924031 -0.107287 -0.366957 168 131 118
-0.136094 -0.526837 -0.364563 0.579773 -0.736314 -0.348863 146 104 91
0.11795 -0.233059 -0.679793 0.805994 -0.114548 -0.580735 181 151 141
0.0852846 -0.174993 -0.756773 0.501288 -0.371603 -0.781423 175 148 139
0.0584401 -0.189303 -0.776627 0.704176 0.0136045 -0.709895 167 137 127
0.0701567 -0.247576 -0.794607 0.507936 -0.0158012 -0.86125 151 121 111
-0.0100511 -0.410652 -0.682019 0.582651 -0.723449 -0.370325 152 133 130
-0.195455 -0.608845 -0.483849 0.487528 -0.818749 -0.30326 116 100 81
-0.114843 -0.530975 -0.58975 0.297868 -0.806963 -0.509987 89 74 62
-0.161297 -0.578923 -0.531014 0.373302 -0.869758 -0.322748 91 76 63
-0.46502 -0.802196 -0.279559 0.375952 -0.804406 -0.459991 113 101 83
-0.308181 -0.657208 -0.462138 0.346795 -0.786562 -0.510934 117 106 86
0.011277 -0.166305 -0.894024 0.714848 0.311872 -0.625881 104 62 49
-0.503892 -0.78466 -0.340043 0.372148 -0.792295 -0.483502 107 97 79
0.0166547 -0.28896 -0.897659 0.625316 -0.740347 -0.246714 132 105 83
-0.481301 -0.75165 -0.377979 0.328171 -0.763319 -0.556461 114 102 82
-0.346231 -0.626623 -0.539748 0.291552 -0.787 -0.543718 97 85 70
-0.327921 -0.6107 -0.557218 0.284781 -0.850009 -0.443154 94 81 66
-0.440764 -0.705566 -0.448522 0.335203 -0.782235 -0.525118 114 103 82
-0.516362 -0.753477 -0.387669 0.326957 -0.7549 -0.568528 91 81 66
-0.0643179 -0.327579 -0.893273 0.282837 -0.816989 -0.502526 90 77 64
-0.469102 -0.672174 -0.509874 0.269213 -0.750071 -0.604085 111 100 80
-0.430111 -0.581659 -0.566135 0.230978 -0.826027 -0.514128 114 101 80
-0.620998 -0.792106 -0.363319 0.373956 -0.780077 -0.501634 107 99 82
-0.702015 -0.8128 -0.329198 0.192058 -0.862443 -0.468301 115 103 82
-0.683721 -0.782481 -0.36187 0.449118 -0.658306 -0.604091 113 100 81
-0.479203 -0.643053 -0.559312 0.297798 -0.813081 -0.500217 107 97 78
-0.0791479 -0.286187 -0.974135 0.266817 -0.605321 -0.749931 119 109 91
-0.631796 -0.754516 -0.440721 0.310006 -0.748917 -0.585679 87 77 64
-0.0978989 -0.226559 -1.00973 0.497938 -0.289418 -0.817493 93 61 52
-0.556633 -0.68474 -0.518408 0.42269 -0.80868 -0.409108 91 81 67
-0.300016 -0.451692 -0.793647 0.297839 -0.74498 -0.596906 111 100 80
-0.6382 -0.737519 -0.465799 0.378445 -0.687672 -0.619587 98 90 73
-0.519218 -0.625739 -0.593287 0.303461 -0.773736 -0.556097 91 82 67
-0.600015 -0.674636 -0.532945 0.346506 -0.785614 -0.512588 107 98 79
-0.397268 -0.421623 -0.823559 0.20299 -0.957831 -0.20336 108 97 77
0.719259 0.516726 0.348349 0.909966 -0.299732 -0.28657 146 21 24
0.611969 -0.0243998 0.493995 0.642499 -0.761436 0.086084 168 140 131
0.656618 0.00645864 0.399047 0.609838 -0.715537 -0.340739 178 146 135
0.668438 0.657922 0.319697 0.834727 0.0324019 -0.549709 185 156 161
0.64606 0.495702 0.267643 0.710319 -0.0662502 -0.700755 172 142 144
0.519417 0.587947 0.167851 0.112682 -0.345408 -0.931664 165 150 152
0.596725 -0.0116375 0.0159691 0.231238 -0.636716 -0.73561 161 121 102
0.52352 0.105619 -0.0203718 0.464651 0.210345 -0.860147 167 131 116
0.511337 0.13691 -0.0239162 0.62572 0.196777 -0.75482 166 128 113
0.551505 -0.331409 -0.0722362 0.462325 -0.411935 -0.785217 169 154 146
0.0542792 0.717405 0.0780906 0.368389 -0.833759 -0.411259 65 34 24
0.360454 -0.583176 0.0747835 0.0269115 -0.737175 -0.675166 171 164 163
0.438657 -0.201725 -0.150332 0.759181 -0.202512 -0.618574 170 155 148
0.42164 -0.234433 -0.143113 0.427536 -0.610118 -0.667061 144 124 116
0.205075 -0.469953 -0.0102597 -0.105314 -0.304888 -0.946548 154 139 135
0.234595 0.100626 -0.133098 0.66722 -0.00434399 -0.744847 151 114 113
0.215214 0.154232 -0.151417 0.924066 -0.0745288 -0.374898 100 23 27
0.322317 -0.298634 -0.132094 -0.0538663 -0.312214 -0.948483 155 137 129
0.231029 -0.454993 -0.0214572 -0.146113 -0.364145 -0.91981 167 161 160
-0.0648476 0.733072 -0.087776 0.449227 -0.854438 -0.261019 91 53 36
0.198325 -0.0585956 -0.159702 0.442364 -0.19874 -0.874538 152 117 116
0.160243 -0.112486 -0.172867 0.611696 -0.0794194 -0.787097 158 131 131
0.169487 0.0949685 -0.253634 0.451149 -0.119751 -0.884378 142 37 41
0.140916 0.179853 -0.259774 0.641743 0.140927 -0.75386 173 152 156
0.126256 0.172755 -0.270837 0.616083 0.17152 -0.76878 161 140 144
0.0790388 -0.230156 -0.100282 0.479124 0.365885 -0.797853 154 125 130
0.122122 -0.115623 -0.204966 0.649091 -0.206258 -0.732215 121 24 27
0.0216094 -0.235281 -0.122195 0.414225 -0.623172 -0.66338 118 41 44
0.056559 -0.15874 -0.215337 0.208236 -0.528714 -0.82286 147 112 116
0.0802925 0.00474803 -0.302733 0.6707 0.0124887 -0.741624 115 59 61
0.074865 -0.0757869 -0.279144 0.725091 -0.536188 -0.432139 127 33 37
-0.0781771 0.405633 -0.428157 0.831908 -0.0499215 -0.552662 165 134 123
0.144854 -0.220536 -0.656263 0.688003 -0.11719 -0.716184 173 138 126
-0.127174 -0.531621 -0.382166 0.855125 -0.250073 -0.45412 138 96 81
-0.189818 -0.663702 -0.326015 0.689142 -0.716704 -0.106856 166 137 129
-0.483168 -0.775257 -0.163837 0.580028 -0.695356 0.42432 148 119 114
0.0581332 -0.205321 -0.78772 0.744838 0.336455 -0.576206 162 130 119
-0.0773958 -0.521226 -0.580239 0.37483 -0.831711 -0.409586 124 107 87
-0.216603 -0.629036 -0.459193 0.471526 -0.817799 -0.329951 121 106 85
-0.0864134 -0.505135 -0.620197 0.290119 -0.802271 -0.521721 116 99 82
-0.212946 -0.60825 -0.502965 0.354279 -0.810858 -0.465829 90 76 63
-0.450406 -0.797292 -0.282803 0.388471 -0.824587 -0.411274 117 104 85
-0.490278 -0.819031 -0.262939 0.352951 -0.79166 -0.498698 99 88 72
-0.357707 -0.696456 -0.413114 0.348381 -0.818261 -0.457252 118 106 85
0.0169789 -0.226436 -0.875712 0.945892 -0.0729007 0.316185 15 10 9
-0.313301 -0.644113 -0.485309 0.337383 -0.797324 -0.500445 119 108 87
-0.169679 -0.498875 -0.668196 0.302047 -0.794743 -0.526451 120 106 85
-0.540457 -0.801292 -0.323116 0.347678 -0.77907 -0.521699 112 103 83
-0.0890917 -0.396215 -0.793342 0.325291 -0.813088 -0.482777 120 106 85
-0.301046 -0.565434 -0.616149 0.332944 -0.824314 -0.45788 98 84 70
-0.0328779 -0.25988 -0.953917 0.415519 -0.28575 -0.863534 100 67 54
-0.298379 -0.509612 -0.702274 0.320532 -0.811368 -0.488817 84 74 63
-0.113756 -0.144772 -0.994531 0.577265 0.0557962 -0.814648 96 66 56
-0.458379 -0.554632 -0.626813 0.165192 -0.809294 -0.563698 112 99 77
-0.164077 -0.333031 -0.92961 0.289446 -0.782557 -0.551204 95 82 68
-0.116776 -0.198748 -1.03464 0.62191 -0.347452 -0.701787 77 52 45
-0.223262 -0.34663 -0.932888 0.0765619 -0.577537 -0.812766 110 100 80
-0.133123 -0.204838 -1.04617 0.6266 -0.302494 -0.718241 67 43 37
-0.350556 -0.401886 -0.841069 0.264691 -0.927177 -0.265106 94 83 67
-0.251616 -0.343424 -0.959375 0.169308 -0.494412 -0.85258 82 71 59
0.673366 0.508914 0.293577 0.785945 0.0477091 -0.616454 139 36 38
0.497599 -0.573882 0.31848 0.232272 -0.963548 0.132759 78 45 40
0.678976 -0.345041 0.0575359 0.954165 -0.266442 -0.1363 186 170 164
0.641465 -0.310268 0.00888649 0.838273 -0.0131441 -0.545092 181 163 155
0.606971 -0.205472 -0.00919565 0.670307 0.195886 -0.715764 113 84 73
0.510337 0.116985 -0.0277289 0.587 0.0370542 -0.808738 162 125 109
0.513446 -0.273941 -0.102106 0.247835 -0.0836254 -0.965187 167 151 144
0.285063 0.0667933 -0.0925777 0.21818 -0.432648 -0.874764 140 102 91
0.244556 0.0885951 -0.121962 0.744609 -0.336565 -0.576439 151 121 120
0.204871 0.142122 -0.209779 0.963383 0.0324513 -0.266156 190 172 177
0.180041 0.248528 -0.199942 0.666954 0.0239588 -0.744713 130 29 33
0.12948 0.339989 -0.201396 0.700898 0.165858 -0.69371 175 151 157
0.175713 -0.00503325 -0.190178 0.669784 -0.31569 -0.672108 113 19 21
0.122774 0.087197 -0.274262 0.333762 0.0423039 -0.941708 123 18 19
0.0926713 0.179002 -0.287795 0.472882 0.138518 -0.870169 137 105 106
-0.0620151 -0.333575 -0.0250755 0.171178 -0.822608 -0.54223 156 143 151
-0.284837 -0.481132 0.164211 0.461224 -0.887011 0.0219837 181 142 152
0.0539138 0.159192 -0.360856 0.840371 -0.393845 -0.372374 130 21 24
0.0790866 0.00381768 -0.370652 0.990121 0.117157 0.0770282 165 26 30
-0.0598088 0.43341 -0.403417 0.888896 0.0847407 -0.450203 173 143 134
-0.136913 -0.432598 -0.223923 0.801453 -0.518541 0.297975 154 112 98
-0.0111645 0.145225 -0.560107 0.953495 -0.234825 -0.188956 178 158 162
-0.0653574 0.0790573 -0.671879 0.907523 -0.139433 -0.396182 168 142 144
-0.0549364 -0.500609 -0.541967 0.945011 -0.0815166 0.316715 128 94 83
0.0419774 -0.396612 -0.656372 0.710659 -0.681733 -0.173795 174 151 147
-0.45749 -0.76597 -0.174066 0.720311 -0.685906 0.10336 167 143 138
-0.285311 -0.705218 -0.33406 0.596027 -0.702627 -0.388673 103 72 60
-0.123155 -0.575061 -0.511188 0.343501 -0.828185 -0.442851 126 107 84
-0.357123 -0.724306 -0.277991 0.0763414 -0.966818 -0.243794 158 135 128
-0.0973148 -0.542933 -0.557045 0.369192 -0.826492 -0.424981 124 107 86
-0.206296 -0.637232 -0.436595 0.340507 -0.799115 -0.49545 126 110 89
-0.110042 -0.517995 -0.608008 0.368544 -0.830442 -0.417783 101 85 71
-0.368818 -0.687705 -0.377993 0.276442 -0.856982 -0.434926 123 105 82
-0.410514 -0.717391 -0.411386 0.36772 -0.792539 -0.486481 101 91 75
0.000499497 -0.309965 -0.869733 0.699563 -0.686762 -0.197404 132 105 85
-0.556929 -0.833422 -0.286553 0.302422 -0.777539 -0.551338 116 106 86
-0.207078 -0.455608 -0.757448 0.303848 -0.802525 -0.51345 117 106 85
-0.386421 -0.522866 -0.653147 0.122167 -0.904978 -0.40754 116 104 82
-0.571193 -0.639773 -0.543826 -0.0042915 -0.883565 -0.468289 110 97 76
-0.404761 -0.464018 -0.766956 0.419115 -0.907767 0.017335 110 97 76
0.70787 0.544185 0.357711 0.954395 -0.0758463 -0.288751 160 60 62
0.661153 0.50155 0.279292 0.778105 -0.0175449 -0.627889 166 108 111
0.530672 -0.565069 0.33036 0.414345 -0.907239 0.0723487 83 51 45
0.562925 0.466438 0.114853 0.615882 0.120149 -0.778622 174 160 154
0.594567 -0.525493 0.132516 0.569821 -0.634005 -0.52282 68 40 35
0.576617 -0.266516 -0.0643946 0.590487 0.150104 -0.792965 171 154 146
0.448498 -0.176869 -0.135345 0.774152 -0.0386812 -0.631817 164 146 137
-0.05329 0.421188 -0.391269 0.856075 0.115239 -0.503841 176 147 139
0.0124779 0.0802932 -0.499433 0.938407 0.310463 -0.151673 137 18 21
-0.0179964 0.157243 -0.575919 0.882001 0.0839067 -0.463719 180 163 168
-0.11919 -0.500507 -0.261918 0.980973 -0.105761 -0.162804 159 122 109
-0.221154 -0.664043 -0.288198 0.417707 -0.880934 -0.222433 174 143 134
0.0558472 -0.386922 -0.642805 0.603348 -0.790694 -0.103796 177 150 143
-0.179558 -0.623444 -0.449698 0.505967 -0.86137 0.0451634 124 107 84
-0.159993 -0.610855 -0.474955 0.396433 -0.836426 -0.378462 123 107 83
-0.140846 -0.540134 -0.591027 0.31337 -0.811233 -0.493659 108 93 76
-0.114415 -0.480264 -0.666127 0.32524 -0.793177 -0.514868 124 110 88
-0.238044 -0.575036 -0.568215 0.360065 -0.841208 -0.403388 115 103 82
0.00522186 -0.281161 -0.91661 0.409149 -0.786941 -0.461867 112 89 71
-0.244048 -0.366643 -0.847609 0.207204 -0.789014 -0.57838 113 100 77
-0.349457 -0.455806 -0.799649 0.442532 -0.808448 -0.388042 105 98 79
-0.571908 -0.570556 -0.632498 0.633092 -0.554479 0.540137 99 86 70
-0.511099 -0.518529 -0.708344 0.624215 -0.777273 0.0787548 91 80 66
0.717657 0.358005 0.312111 0.870563 0.10699 -0.480285 195 172 170
0.574345 0.419051 0.115715 0.599626 -0.0633628 -0.797768 172 157 150
0.485871 -0.195196 -0.108268 0.533293 -0.0709454 -0.84295 160 144 136
0.0031841 0.67322 0.0908688 0.160129 -0.864558 -0.476339 76 40 26
0.281763 0.118862 -0.103305 0.495925 -0.174722 -0.850606 127 71 64
0.198345 0.00631235 -0.164465 0.344021 0.236206 -0.908767 93 10 12
0.184099 0.227911 -0.204816 0.640364 0.251161 -0.725845 114 13 16
0.0817903 0.080911 -0.332799 0.98929 -0.102395 -0.104018 169 64 69
-0.00878403 0.3778 -0.337536 0.709918 -0.0752237 -0.700256 173 138 127
-0.342948 -0.752265 -0.226953 0.446725 -0.878795 -0.167795 174 154 147
-0.0437764 -0.477176 -0.575483 0.906046 -0.405226 -0.121954 136 103 94
-0.0863829 -0.529184 -0.576027 0.29976 -0.810964 -0.502475 124 106 86
-0.112858 -0.438958 -0.735366 0.323055 -0.785604 -0.527694 113 100 83
-0.0917732 -0.206114 -1.01168 0.591344 -0.148055 -0.792712 64 38 30
0.693083 0.110259 0.30699 0.900707 -0.430648 -0.0571862 174 153 142
0.644729 -0.0307756 0.334776 0.885966 -0.463062 0.0252558 190 158 147
-0.309528 -0.741943 -0.174105 0.474748 -0.877119 -0.0726321 178 154 146
0.625499 -0.511221 0.153184 0.734157 -0.637187 -0.234533 71 43 38
0.148837 -0.000180028 -0.25247 0.829056 -0.328553 -0.452458 179 149 152
-0.135207 -0.601437 -0.47483 0.366908 -0.816509 -0.445749 126 108 84
0.33471 -0.600449 0.116577 0.166938 -0.663427 -0.729381 172 167 165
