ply
format ascii 1.0
element vertex 67
property float x
property float y
property float z
property float nx
property float ny
property float nz
property uchar diffuse_red
property uchar diffuse_green
property uchar diffuse_blue
end_header
0.135502 0.411448 1.07825 0.157419 -0.708756 0.687666 167 59 63
0.292827 0.274911 0.946003 0.431323 -0.549136 0.715829 197 171 176
0.269294 0.263945 0.951306 0.430448 -0.616477 0.659296 193 166 169
0.0691345 0.369535 1.08397 0.376277 -0.874532 0.305955 161 33 37
0.0785891 0.365685 1.05231 0.203674 -0.534638 0.82017 157 31 37
0.146559 0.211049 0.952053 0.526714 -0.761593 0.377556 188 170 166
0.623992 -0.0347812 0.383222 0.657358 -0.661239 0.361446 206 177 169
0.141284 0.0345304 0.768444 0.165998 -0.969325 0.181261 163 138 129
0.460514 -0.396498 0.454123 0.369302 -0.731417 0.573275 185 165 162
0.57012 -0.479493 0.366627 0.771342 -0.621072 0.138927 104 68 62
0.535744 -0.519707 0.398963 0.707222 -0.613289 0.351729 90 53 49
0.373281 -0.478341 0.396777 0.188741 -0.943749 0.271504 185 168 167
0.472599 -0.588133 0.342182 0.903799 -0.426011 -0.0407634 85 52 46
0.512299 -0.564278 0.249291 0.357633 -0.929775 0.0872721 66 37 33
0.476287 -0.583383 0.257204 0.194142 -0.980312 -0.0360183 68 38 33
0.389012 -0.619469 0.278674 0.497264 -0.867552 0.00903918 182 171 168
0.139972 -0.429305 0.40278 0.336016 -0.867815 0.366048 169 160 158
-0.332908 -0.0264382 0.40226 0.203752 -0.684995 0.699476 146 113 122
-0.480099 0.108327 0.447554 0.520297 -0.521798 0.676031 162 118 108
-0.118001 -0.259065 0.275271 0.348192 -0.720576 0.599609 144 100 100
-0.0272182 -0.360511 0.126862 0.22415 -0.844966 -0.485583 157 142 139
-0.254741 -0.434309 0.0832913 0.772182 -0.406732 0.488165 84 12 13
-0.394276 -0.484446 0.147842 0.364029 -0.460582 -0.809534 168 47 50
-0.300232 -0.509987 0.078615 0.778705 -0.376874 0.50158 131 31 32
-0.0635867 -0.36474 -0.233051 0.379515 -0.723606 0.576509 148 107 97
-0.066783 -0.361954 -0.25744 0.180769 -0.802662 0.56838 146 102 88
-0.561984 -0.618317 -0.0241279 -0.0644156 -0.759062 0.647824 148 117 108
-0.245474 -0.683394 -0.263823 0.905187 -0.396095 0.1541 174 148 139
-0.260457 -0.695798 -0.265815 0.688687 -0.629862 -0.359143 173 147 138
-0.642924 -0.641908 -0.0296913 0.5316 -0.573781 0.623038 120 75 61
-0.420246 -0.763816 -0.199606 0.674682 -0.70529 -0.217643 169 150 146
-0.42612 -0.720188 -0.285322 0.0249039 -0.967166 -0.252922 131 97 85
0.596669 0.0420472 0.733302 0.924909 -0.378556 -0.0351827 211 199 198
0.310869 0.265718 0.926131 0.559709 -0.662056 0.498404 197 180 183
0.281936 0.244814 0.936301 0.525179 -0.542038 0.656035 194 177 178
0.704134 0.119766 0.321821 0.865064 -0.386286 -0.320073 183 165 155
0.576804 -0.0923563 0.46627 0.87161 -0.337622 0.355399 202 172 164
0.611309 -0.439205 0.353831 0.902638 -0.343447 0.259401 114 77 68
-0.466881 0.3301 0.744465 0.30944 -0.901336 -0.303049 89 54 37
0.461542 -0.604727 0.334371 0.714847 -0.697981 0.0426104 138 114 107
-0.623562 0.316796 0.598617 0.403009 -0.884294 -0.235814 78 44 30
0.411913 -0.607276 0.176733 0.60221 -0.753643 -0.263373 184 174 171
-0.499379 0.120941 0.474423 0.441959 -0.459518 0.770399 158 114 104
0.346563 -0.591251 0.1294 0.212977 -0.806267 -0.551882 174 166 163
-0.668916 0.243677 0.517244 0.323604 -0.891455 0.317158 133 104 97
-0.120117 -0.282345 0.234492 0.14738 -0.986092 0.0768232 130 86 86
-0.0537289 -0.361683 0.131268 0.2222 -0.844641 -0.487041 155 134 134
-0.0445609 -0.305091 -0.0489686 0.440761 -0.76524 -0.469188 148 110 115
-0.246562 -0.44883 0.00290425 0.652511 -0.757617 0.0156645 173 139 132
-0.522885 -0.405396 0.107163 0.19779 -0.804465 0.560103 156 80 88
-0.199394 -0.658495 -0.298293 0.374085 -0.8677 -0.327348 170 139 130
-0.474521 -0.754828 -0.128119 0.140887 -0.971744 0.189381 164 138 131
-0.357123 -0.724306 -0.277991 0.0763414 -0.966818 -0.243794 158 135 128
-0.552705 -0.830139 -0.133427 0.135998 -0.921613 0.363504 96 69 55
0.477122 -0.550749 0.106034 0.185687 -0.838614 -0.5121 176 164 162
-0.628554 0.234325 0.512469 0.0347491 -0.935542 0.351502 144 114 106
-0.217856 -0.336315 0.248456 0.0362532 -0.934547 0.353987 165 136 142
-0.124186 -0.383515 0.17552 0.0938506 -0.772179 0.628435 88 24 26
-0.595647 -0.165087 0.286315 -0.298282 -0.807259 0.509276 156 106 113
-0.127835 -0.443276 -0.14531 0.799542 -0.526419 0.289164 160 123 111
-0.413848 -0.533728 -0.630398 0.19501 -0.860675 -0.47033 114 101 78
0.649393 0.00482194 0.473553 0.707885 -0.697943 -0.108511 189 174 170
-0.0928023 0.158294 0.897964 0.00262475 -0.997746 0.0670506 169 157 151
-0.45005 0.328791 0.769962 0.341353 -0.922396 -0.180729 90 54 38
-0.583991 0.31066 0.633379 0.378492 -0.890798 -0.251439 71 38 26
0.67824 0.0421773 0.440659 0.512894 -0.825031 0.237198 193 178 171
0.541196 -0.535904 0.274546 0.366491 -0.841016 0.397965 82 47 41
