ply
format ascii 1.0
element vertex 306
property float x
property float y
property float z
property float nx
property float ny
property float nz
property uchar diffuse_red
property uchar diffuse_green
property uchar diffuse_blue
end_header
0.208984 0.415996 1.04448 0.139672 -0.509709 0.848934 149 23 29
0.179506 0.414623 1.05601 0.0406055 -0.904575 0.424375 148 18 23
0.230064 0.278289 0.972493 0.215505 -0.221887 0.95096 170 57 64
-0.0178579 0.403654 1.13581 -0.00388298 -0.8341 0.551599 90 35 28
0.117033 0.296309 1.00228 0.0444501 -0.425462 0.903884 144 20 23
0.051943 0.353367 1.06902 0.457371 -0.829033 0.321739 159 23 27
0.117691 0.270163 0.991778 0.185818 -0.284395 0.940527 152 54 59
0.366999 -0.0563692 0.711496 0.316073 -0.20663 0.92596 201 175 167
-0.0612681 0.277723 0.986471 -0.815608 -0.166635 0.55409 148 79 84
0.0841121 0.0251803 0.742692 0.17826 -0.877511 0.445193 176 137 125
0.041988 0.0144657 0.734336 0.0872848 -0.922764 0.375351 175 138 126
0.398318 -0.479512 0.391253 0.262838 -0.926374 0.269716 143 123 120
0.373281 -0.478341 0.396777 0.188741 -0.943749 0.271504 185 168 167
0.126308 -0.193292 0.640013 -0.0783123 -0.700594 0.70925 158 115 100
-0.197304 0.295685 0.897478 -0.520215 -0.821422 0.233758 115 96 88
0.137928 -0.242638 0.561464 0.0868798 -0.950437 0.29853 169 148 142
-0.243693 0.40879 0.757098 -0.321195 -0.946556 -0.0294146 31 19 16
0.16859 -0.40104 0.487716 -0.588128 -0.660625 0.466562 165 153 151
0.136151 -0.38064 0.459597 -0.258567 -0.89836 0.355093 117 102 100
0.177797 -0.438574 0.395943 -0.278003 -0.681984 0.676471 162 150 148
0.150721 -0.413539 0.41147 -0.1382 -0.90926 0.392615 163 152 149
-0.273053 0.416591 0.67001 -0.233834 -0.946128 -0.223973 33 18 15
-0.269329 0.436942 0.616039 -0.323402 -0.865166 -0.383274 31 14 13
-0.372908 0.384062 0.714841 0.192285 -0.912779 -0.360362 61 35 26
-0.273722 0.333052 0.598248 -0.699545 -0.110464 0.706 77 13 15
0.0706292 -0.361231 0.358054 -0.894031 -0.364289 0.260773 126 115 112
-0.444 0.388328 0.629225 0.392412 -0.890706 -0.229466 54 29 22
0.0630291 -0.391872 0.275262 -0.738293 -0.303983 0.602093 152 143 140
-0.0984998 -0.173048 0.36218 -0.932396 -0.288562 0.217646 139 114 111
-0.306308 0.0854955 0.52533 -0.582714 -0.60304 0.544783 149 130 134
0.0393121 -0.367266 0.219355 -0.324821 -0.935766 -0.137233 123 110 108
0.00630909 -0.348956 0.247788 -0.503871 -0.851185 0.14696 155 149 147
0.0137336 -0.3574 0.226417 -0.400971 -0.909041 -0.113431 140 130 126
-0.0218343 -0.357182 0.241602 -0.0781701 -0.996427 0.032003 158 149 148
-0.258757 -0.00774856 0.402264 -0.583921 -0.681181 0.441621 148 126 135
-0.206316 -0.115636 0.349528 0.434617 -0.319398 0.842076 132 94 98
-0.381134 0.117604 0.468551 -0.60209 -0.591024 0.536822 157 135 142
-0.55201 0.367216 0.575196 0.396863 -0.888085 -0.231959 53 27 19
-0.206065 -0.19587 0.335343 -0.145046 -0.0733398 0.986704 117 13 18
-0.262978 -0.13633 0.351066 0.209398 -0.22422 0.951776 116 13 16
-0.497816 0.261204 0.468348 -0.493533 -0.481633 0.724192 133 97 89
-0.328895 -0.103879 0.361357 0.262818 0.0071714 0.964818 127 26 30
-0.533091 0.23524 0.468698 -0.620967 -0.371904 0.689991 150 113 101
-0.286867 -0.21974 0.333721 0.016091 -0.373184 0.927618 166 132 140
-0.327042 -0.173629 0.35739 0.0896792 -0.244914 0.965389 164 136 143
-0.628554 0.234325 0.512469 0.0347491 -0.935542 0.351502 144 114 106
-0.268819 -0.292434 0.316644 0.2806 -0.657685 0.699081 167 142 148
-0.375069 -0.189154 0.362402 -0.341506 -0.602475 0.721386 164 134 141
-0.476407 -0.0155471 0.378557 0.543039 -0.214034 0.811972 145 95 82
-0.346469 -0.253553 0.293665 -0.0702586 -0.579066 0.812249 129 24 28
-0.643973 0.226393 0.499332 0.496966 -0.764075 0.411357 146 113 103
-0.351554 -0.266978 0.275 -0.859727 -0.202634 0.468839 121 14 18
-0.664486 0.0540569 0.431605 -0.140393 -0.929357 0.341447 167 130 118
-0.776078 0.251392 0.465831 -0.550963 -0.117886 0.826161 152 120 110
-0.457684 -0.235927 0.199948 -0.538097 -0.841763 0.0434434 142 75 83
-0.581372 -0.102752 0.340494 -0.478349 -0.492789 0.726871 140 103 100
-0.599154 -0.147522 0.293848 -0.188537 -0.44384 0.876048 154 125 129
-0.775893 -0.0255679 0.243732 -0.149469 -0.249341 0.956812 105 61 52
-0.648187 -0.165047 0.128217 -0.531625 -0.80829 0.253064 115 18 22
-0.545839 -0.395505 0.105746 -0.235562 -0.813713 0.531397 141 28 33
-0.543672 -0.388813 0.108618 -0.0900787 -0.755811 0.648564 142 33 38
-0.576887 -0.374183 0.12002 -0.297776 -0.613545 0.731363 136 19 22
-0.908693 0.0638751 0.321307 -0.422375 -0.840777 0.338664 105 69 51
-0.982206 0.15261 0.331555 -0.382492 -0.599367 0.703177 85 56 42
-0.923419 0.0657686 0.302629 -0.589984 -0.744876 0.311576 102 72 55
-0.61545 -0.311039 0.0890621 -0.335776 0.122271 0.933972 159 110 116
-0.900158 -0.00221118 0.28702 -0.74081 -0.550354 0.385111 108 78 60
-0.490356 -0.566121 0.0313692 0.0424252 -0.850676 0.523975 176 146 138
-0.917449 0.0143689 0.283636 -0.581221 -0.577473 0.57333 98 70 55
-0.943318 0.0559652 0.280088 -0.206974 -0.978202 0.0168314 83 55 43
-1.04582 0.196896 0.338398 -0.647709 -0.757995 0.0769227 109 79 58
-0.70461 -0.261356 0.123186 0.504138 -0.292947 0.81242 143 69 74
-0.65338 -0.378825 0.0834979 -0.0639197 -0.390511 0.918376 152 107 114
-0.680454 -0.355473 0.100435 0.488684 -0.25831 0.833345 123 20 24
-0.994793 0.093954 0.268666 -0.500112 -0.825002 0.263172 108 80 59
-0.989673 0.0812684 0.252416 -0.376338 -0.910859 -0.169428 106 78 60
-1.05353 0.152787 0.260492 0.0459897 -0.509111 0.859472 77 50 38
-0.70346 -0.436095 0.0867204 0.658347 -0.505004 0.558166 118 65 51
-0.841897 -0.245245 0.1179 -0.556877 -0.538496 0.632384 105 79 61
-0.972384 -0.0117487 0.201517 -0.482742 -0.434193 0.76055 78 53 40
-1.06874 0.0890811 0.227818 -0.699811 -0.214699 0.6813 106 78 59
-0.913195 -0.15314 0.114234 -0.370215 -0.90587 0.205767 85 61 47
-0.798568 -0.329514 0.0834546 -0.737271 -0.494297 0.460545 109 83 62
-0.881558 -0.207642 0.0930352 -0.793843 -0.466641 0.389949 84 59 46
-0.853711 -0.265172 0.0873737 -0.673061 -0.507659 0.53784 89 65 52
-0.779995 -0.364512 0.0668356 -0.489184 -0.723317 0.487352 111 85 63
-0.62744 -0.616631 -0.0155251 0.460992 -0.273877 0.844084 130 80 61
-1.14508 0.15959 0.195361 -0.790651 -0.373583 0.485084 82 59 47
-0.589517 -0.678589 -0.0296997 0.558838 -0.706323 0.434521 138 96 81
-0.851436 -0.298953 0.0577506 -0.539594 -0.563801 0.625273 107 81 61
-0.962577 -0.140795 0.0852789 -0.450519 -0.597695 0.66317 107 80 60
-0.912793 -0.210405 0.0699709 -0.528052 -0.77279 0.352076 106 80 60
-1.17278 0.160713 0.159837 -0.713118 -0.253142 0.653744 104 79 62
-1.00704 -0.0941363 0.0771162 -0.261818 -0.466024 0.845147 105 78 59
-0.761985 -0.471466 -0.0310889 -0.019691 -0.64999 0.759687 89 62 48
-1.21276 0.197322 0.161458 0.193165 -0.856894 0.477934 91 66 51
-0.935501 -0.228569 0.0137256 -0.177821 -0.901942 0.39355 83 59 45
-0.777833 -0.478136 -0.0400481 -0.455344 -0.703324 0.545892 80 55 41
-0.997532 -0.161609 0.0499752 -0.692289 -0.348016 0.632156 104 79 60
-0.931375 -0.253812 0.00973035 -0.420843 -0.844118 0.332199 105 80 61
-0.799428 -0.49115 -0.0499822 0.447446 -0.19949 0.871777 108 83 62
-0.795411 -0.503938 -0.0745882 -0.6111 -0.335693 0.716844 109 83 61
-0.813694 -0.467277 -0.0603464 -0.539117 -0.667931 0.51305 108 82 61
-0.726909 -0.595554 -0.0922469 -0.553522 -0.62446 0.551057 91 68 54
-1.24539 0.145234 0.114783 -0.29873 -0.629147 0.717589 102 78 62
-1.18792 0.0582544 0.0604192 -0.442749 -0.862449 0.245266 66 46 36
-0.852356 -0.460642 -0.0897818 -0.474624 -0.572818 0.668291 103 79 58
-0.77656 -0.563914 -0.104192 -0.71645 -0.342019 0.608049 110 85 62
-0.736366 -0.621856 -0.124164 -0.349778 -0.590988 0.726903 109 84 63
-1.00823 -0.231078 -0.0440778 -0.375498 -0.768714 0.517764 102 78 59
-1.17298 0.0065692 0.0102762 -0.0493606 -0.345525 0.93711 75 54 42
-1.245 0.0772593 0.093209 0.228339 -0.834708 0.501122 98 74 57
-0.993018 -0.290128 -0.0862366 -0.430978 -0.373037 0.821645 84 61 47
-0.917639 -0.402928 -0.0981783 -0.555917 -0.664593 0.499273 103 78 59
-0.779586 -0.607124 -0.139983 -0.61852 -0.383148 0.686025 75 54 41
-1.21972 0.0558171 0.0257628 0.0366135 -0.217133 0.975455 98 75 58
-0.883188 -0.471443 -0.119033 -0.442902 -0.12453 0.88788 104 79 58
-1.18492 -0.0295589 -0.00512899 -0.0353896 -0.195542 0.980056 95 70 55
-1.00257 -0.318164 -0.106561 -0.423602 -0.514656 0.745447 74 53 42
-0.98767 -0.34664 -0.117041 -0.145233 -0.988584 0.040095 74 53 40
-0.838017 -0.568748 -0.172767 -0.663136 -0.504369 0.553048 105 82 61
-1.09283 -0.211304 -0.0839839 -0.630816 -0.452938 0.630015 96 70 54
-1.05471 -0.276472 -0.0891114 -0.254926 -0.850522 0.460027 97 73 56
-0.858233 -0.5455 -0.187071 -0.436042 -0.766442 0.471629 104 79 60
-0.931874 -0.478572 -0.186871 -0.548925 -0.509481 0.662654 73 51 40
-0.97926 -0.408117 -0.156858 -0.549045 -0.574733 0.606821 97 73 55
-0.956723 -0.460207 -0.180102 -0.380577 -0.817552 0.432169 96 71 54
-0.871209 -0.577224 -0.200709 -0.379815 -0.652837 0.655396 78 59 47
-0.948078 -0.49157 -0.195688 -0.357862 -0.38424 0.851055 97 74 55
-0.913127 -0.566989 -0.213481 -0.134634 -0.221063 0.965922 99 76 56
0.186362 0.317559 1.00596 0.0940993 -0.636 0.765931 161 27 31
0.179135 0.261141 0.970175 0.157125 -0.54254 0.825205 183 151 155
0.0623091 0.3581 1.03364 0.4558 -0.809687 0.369667 163 82 91
0.340113 0.0209896 0.708037 0.0247827 -0.161664 0.986535 196 166 160
0.216441 0.0485602 0.778127 0.0958545 -0.989895 -0.104504 182 166 162
0.291162 -0.0693052 0.668337 -0.589953 -0.442951 0.675093 149 103 88
-0.116141 0.339226 0.991449 -0.56315 -0.760616 0.322994 65 37 32
0.256744 -0.175014 0.635637 0.307943 -0.514552 0.800255 189 159 150
-0.163066 0.369213 1.01118 -0.478271 -0.497368 0.723796 85 51 33
0.270778 -0.176661 0.627163 0.274281 -0.575291 0.770591 194 164 157
0.452112 -0.433095 0.429819 0.398027 -0.61562 0.680136 84 50 42
-0.188662 0.324646 0.971504 -0.0435797 -0.832771 0.551899 62 39 32
0.24126 -0.276199 0.575484 0.114866 -0.00770311 0.993351 183 164 158
0.178866 -0.21455 0.624227 0.0727436 -0.773299 0.629855 173 139 130
-0.266833 0.400193 0.859543 0.349043 -0.932703 -0.0907403 74 47 32
0.168866 -0.383553 0.49793 -0.0912248 -0.736253 0.67053 167 153 149
-0.121257 0.0903453 0.714832 -0.787893 -0.373546 0.489578 142 109 97
0.0394091 -0.208302 0.567588 0.0711581 -0.942561 0.326368 154 124 114
-0.0179314 -0.182017 0.552744 -0.676777 -0.5317 0.509184 160 133 124
-0.0518322 -0.187595 0.484932 -0.390318 -0.919676 0.0429748 155 135 128
0.100548 -0.400347 0.323595 -0.306239 -0.950773 -0.0474304 154 146 144
-0.317863 0.307725 0.561613 -0.51118 -0.0599625 0.857379 135 116 118
-0.301187 0.18663 0.55244 -0.259491 -0.449412 0.854806 113 11 14
-0.239255 0.0374033 0.536789 -0.475507 -0.840632 -0.259289 149 117 109
-0.33691 0.122669 0.514747 -0.567939 -0.468392 0.676797 154 134 139
-0.407005 0.263386 0.500332 -0.581274 -0.0654598 0.811071 141 116 119
-0.419575 0.167681 0.469653 -0.712664 -0.285377 0.640835 101 11 14
-0.508269 0.268299 0.47058 -0.467063 -0.434071 0.770347 136 101 94
-0.267336 -0.216355 0.342182 0.195647 -0.192332 0.961629 155 103 110
-0.243001 -0.295494 0.315702 -0.140925 -0.624854 0.767917 171 149 156
-0.459072 0.084087 0.392402 0.0212415 -0.30993 0.950521 157 112 105
-0.352152 -0.212939 0.353685 -0.299494 -0.555971 0.775371 165 133 139
-0.649267 0.237328 0.51605 0.281092 -0.89716 0.340722 140 111 103
-0.293508 -0.355148 0.241185 -0.229103 -0.897964 0.375731 132 21 24
-0.820471 0.298248 0.47488 -0.0283517 -0.684873 0.728111 93 59 55
-0.201729 -0.473423 -0.00934765 0.351814 -0.856192 0.378368 167 134 129
-0.552724 -0.199832 0.275289 -0.326647 -0.9246 0.195998 150 108 116
-0.516788 -0.212206 0.224284 -0.153188 -0.824841 0.544216 115 27 33
-0.847817 0.235465 0.440582 -0.0397633 0.00884452 0.99917 139 105 94
-0.505324 -0.245541 0.15112 -0.0292703 -0.521563 0.852711 117 16 20
-0.824982 0.0717107 0.399671 0.0885792 -0.670581 0.736528 145 116 107
-0.786689 0.000276926 0.286473 0.273727 -0.955796 0.107372 134 98 90
-0.583554 -0.258642 0.105305 -0.754441 -0.12874 0.643619 110 13 16
-0.454426 -0.467727 0.0360657 0.623722 -0.284484 0.728038 188 158 152
-0.985973 0.179728 0.343092 -0.185274 -0.912427 0.364899 93 64 48
-0.510424 -0.464566 0.0181306 0.453842 -0.603763 0.655362 167 135 127
-0.6981 -0.341811 0.11177 0.291465 0.0547293 0.955015 125 19 19
-1.03532 0.147864 0.30338 -0.721544 -0.675595 0.151478 107 78 58
-0.623102 -0.41408 0.0505153 -0.0475347 -0.998868 0.00154102 147 106 112
-0.59786 -0.472224 -0.00541451 -0.271859 -0.354253 0.894761 144 107 100
-0.540188 -0.611355 -0.0104525 0.203643 -0.432652 0.878261 167 139 132
-1.04697 0.131487 0.252928 -0.632377 -0.317376 0.706663 81 55 43
-1.02022 0.0753804 0.220465 -0.534971 -0.593795 0.60101 81 55 43
-0.998143 0.0394204 0.222181 -0.530322 -0.333589 0.779408 88 61 47
-0.604046 -0.56912 -0.00681811 -0.293837 -0.44454 0.846194 109 69 58
-0.98699 -0.00828708 0.176171 -0.61578 -0.61317 0.494811 98 73 57
-1.13059 0.191035 0.229286 -0.202265 -0.256604 0.945116 104 77 59
-1.02393 0.0175902 0.180139 -0.687797 -0.530966 0.494984 106 78 59
-0.921596 -0.148139 0.139421 -0.2348 -0.9443 0.230577 87 62 48
-0.777751 -0.381442 0.0493234 -0.685813 -0.593451 0.42128 111 84 63
-1.09426 0.0649393 0.175082 -0.551879 -0.794036 0.254825 106 79 59
-1.06494 -0.00147379 0.131196 -0.230098 -0.702098 0.673879 86 61 46
-0.82888 -0.382781 -0.00620957 -0.55176 -0.382865 0.740928 86 61 46
-0.945499 -0.205101 0.0487597 -0.497214 -0.627523 0.59916 89 63 48
-1.15362 0.105943 0.110733 -0.589165 -0.385658 0.710037 80 58 46
-1.19708 0.148373 0.127731 -0.430777 -0.126827 0.893502 73 52 41
-0.879698 -0.355736 -0.0299562 -0.559891 -0.63475 0.532554 84 60 45
-1.01763 -0.171569 -0.00518634 -0.735186 -0.258134 0.626794 87 66 52
-0.91085 -0.367272 -0.0542836 -0.151256 -0.543218 0.825855 106 81 61
-1.07258 -0.20948 -0.061851 -0.168937 -0.309994 0.935609 91 68 54
-1.11475 -0.146574 -0.0507102 -0.534922 -0.316834 0.783246 98 72 55
-0.882085 -0.487626 -0.132517 -0.654053 -0.492095 0.574506 100 75 56
-0.79387 -0.635764 -0.183981 -0.453061 -0.814875 0.361543 109 85 64
-0.991121 -0.373736 -0.135159 -0.323735 -0.448579 0.83305 99 76 57
-0.86039 -0.597161 -0.218291 -0.597856 -0.556604 0.576854 84 65 51
-0.952135 -0.477604 -0.189855 -0.199998 -0.736289 0.646435 96 71 53
-0.872533 -0.633188 -0.261479 -0.61192 -0.535161 0.582371 100 78 59
0.27352 0.296079 0.961215 0.270607 -0.258816 0.927247 178 78 85
-0.0279023 0.388623 1.10089 -0.150148 -0.707602 0.690474 95 14 15
0.349917 -0.0308711 0.706828 0.0929482 -0.220281 0.970998 199 168 160
-0.0431332 0.329091 1.01914 -0.726215 -0.452465 0.517579 164 147 153
0.234576 -0.0112116 0.697365 -0.0069635 -0.298064 0.954521 180 141 128
0.281354 -0.0985788 0.662874 -0.0447746 -0.275236 0.960334 166 126 113
-0.12962 0.263914 0.949032 -0.513568 -0.14487 0.845731 159 140 136
0.162297 -0.185255 0.651516 -0.18204 -0.344184 0.921086 160 116 102
-0.225699 0.278122 0.744875 -0.406148 -0.912623 -0.0465028 130 116 112
-0.338859 0.374336 0.812595 0.426875 -0.904265 -0.00907872 86 54 37
-0.324805 0.431684 0.6887 0.12817 -0.988718 -0.0775154 52 30 23
0.0685537 -0.349437 0.439932 -0.290678 -0.892885 0.343895 158 148 144
-0.445089 0.342258 0.734142 0.268778 -0.953184 -0.138559 86 51 35
-0.0823332 -0.204978 0.425935 -0.897259 -0.412013 0.158654 143 127 123
0.0425727 -0.354442 0.328098 -0.451928 -0.890716 0.0488448 146 139 138
-0.352484 0.462829 0.531347 -0.90346 -0.365398 0.224151 27 13 12
-0.518452 0.351999 0.660695 0.579071 -0.813016 -0.060673 78 44 29
-0.29838 0.0291222 0.478289 -0.225532 0.0368414 0.973539 116 13 16
0.0251923 -0.356907 0.145883 -0.11016 -0.993794 -0.0154468 109 95 91
-0.305199 -0.0142203 0.384969 0.466943 -0.810585 0.353436 146 123 131
-0.187085 -0.248192 0.302762 0.493569 -0.393917 0.775383 120 16 21
-0.0451589 -0.354953 0.177424 0.289137 -0.955984 -0.0499531 155 142 140
-0.395037 0.0960672 0.435225 -0.656532 -0.501714 0.563249 146 121 125
-0.623562 0.316796 0.598617 0.403009 -0.884294 -0.235814 78 44 30
-0.489014 0.144865 0.49073 0.395726 -0.228147 0.889578 147 106 94
-0.392364 0.0271829 0.373786 -0.478927 -0.449632 0.753962 129 14 17
-0.220831 -0.321919 0.26364 0.197527 -0.896381 0.396842 167 148 155
-0.486872 0.0220257 0.369414 0.0943427 -0.0746243 0.992739 154 107 97
-0.488298 -0.119871 0.363757 -0.127093 -0.22174 0.966788 129 15 18
-0.41232 -0.221383 0.289531 -0.537559 -0.706168 0.460821 129 16 19
-0.774902 0.286014 0.466921 -0.0365543 -0.234832 0.971349 141 111 104
-0.436759 -0.335946 0.205362 0.00950128 -0.609037 0.793085 117 15 18
-0.799554 0.0176636 0.388156 -0.26695 -0.870434 0.413623 144 113 104
-0.838566 0.0971821 0.404616 0.553693 -0.396786 0.73211 143 116 107
-0.678714 -0.0479714 0.222814 -0.370527 -0.622638 0.689225 149 109 99
-0.499567 -0.352313 0.144427 0.0161442 -0.225281 0.974161 155 126 133
-0.466288 -0.383882 0.113904 0.144885 -0.749036 0.646493 163 126 132
-0.71422 -0.0246846 0.21729 -0.208333 -0.594885 0.776343 140 98 88
-0.642111 -0.203358 0.0951644 -0.196371 0.127831 0.972161 116 15 18
-0.539347 -0.414309 0.0635981 0.182842 -0.964403 0.191042 138 33 38
-0.620352 -0.378493 0.0885758 -0.0745523 -0.688595 0.721303 159 120 125
-1.00093 0.107659 0.288156 0.0126793 -0.994179 0.10699 107 79 57
-0.768842 -0.235047 0.16357 0.62175 -0.393143 0.677396 103 55 42
-0.908878 -0.0847321 0.205117 -0.269792 -0.961762 -0.0471921 109 82 62
-1.07701 0.0940107 0.172133 -0.775058 -0.307752 0.551882 105 79 58
-1.12815 0.0124041 0.0798254 -0.403083 -0.183541 0.89657 105 80 62
-0.989019 -0.235633 -0.0140361 -0.789394 -0.410863 0.456124 103 79 59
-0.828934 -0.4836 -0.103418 -0.110107 -0.217363 0.969861 105 79 59
-1.23193 0.103997 0.0933925 -0.110708 -0.587036 0.801955 100 76 57
-1.08913 -0.145038 -0.0193154 -0.586446 -0.69494 0.416102 98 73 56
-1.11059 -0.191155 -0.0862876 -0.687091 -0.531217 0.495696 88 57 45
-0.981782 -0.390764 -0.142078 -0.512814 -0.46373 0.722479 78 55 40
-0.858 -0.6303 -0.243918 -0.530478 -0.590242 0.608447 101 79 60
0.480421 0.128733 0.789576 0.308446 -0.812067 0.495387 189 174 170
0.162054 0.360019 1.01974 -0.0245973 -0.36988 0.928754 175 132 137
0.120103 0.251698 0.977824 0.225467 -0.450478 0.863849 180 141 145
0.0687176 0.251878 0.985316 0.156502 -0.234636 0.959403 171 124 129
0.399434 -0.110165 0.65016 0.313391 -0.718207 0.621262 201 178 171
0.437289 -0.313893 0.509132 0.0753958 -0.73241 0.676676 196 177 174
0.208339 -0.0323766 0.698648 0.290229 -0.450822 0.844113 181 143 130
0.411725 -0.608543 0.364241 0.641931 -0.65299 0.401907 165 147 143
-0.203298 0.386011 0.794572 -0.680967 -0.622322 0.386004 98 79 72
-0.216709 0.157049 0.791539 -0.629646 -0.703465 0.32967 134 121 117
0.0338934 -0.322117 0.426001 -0.823827 -0.357597 0.43981 156 146 142
0.0460196 -0.339652 0.425247 -0.298822 -0.882308 0.363644 157 147 144
-0.23015 0.0498395 0.569915 -0.838363 -0.270453 0.473289 151 120 111
-0.518602 0.120848 0.498565 0.648263 -0.287943 0.704871 152 114 104
-0.528553 -0.179617 0.310093 -0.387159 -0.585429 0.712307 160 131 139
-0.807862 0.181546 0.445604 -0.105335 -0.53093 0.840843 148 115 103
-0.799123 -0.034521 0.228051 0.437426 0.0303006 0.898743 122 67 53
-0.730555 -0.35287 0.103193 -0.3813 -0.307959 0.871649 102 55 42
-1.11063 0.195053 0.24108 -0.00418064 -0.295722 0.955265 106 79 59
-0.935157 -0.307664 -0.0175748 0.0664765 -0.0159267 0.997661 106 80 59
-0.930428 -0.324859 -0.0293805 -0.191614 -0.891316 0.410902 106 80 60
-1.21887 0.0267903 0.0226145 0.356383 -0.103004 0.928645 95 71 55
-1.08308 -0.231295 -0.0903779 -0.350687 -0.457665 0.817044 92 69 54
-1.0781 -0.241822 -0.109971 -0.279357 -0.533849 0.798102 90 65 50
-1.04847 -0.298757 -0.110174 -0.75743 -0.207108 0.619198 96 70 53
0.428834 0.120235 0.843049 0.24281 -0.216188 0.945677 193 180 177
0.135753 0.345966 1.01651 0.00279463 -0.274024 0.961719 176 127 131
-0.0716284 0.375616 1.10369 -0.419705 -0.819266 0.390706 101 52 35
0.267371 -0.261304 0.590108 -0.018749 -0.28869 0.957239 181 158 152
0.0908701 -0.174486 0.623835 -0.538625 -0.386561 0.748634 162 118 105
-0.162734 -0.0611728 0.474266 -0.824173 -0.326738 0.462582 145 108 97
-0.386633 -0.263541 0.26438 -0.233085 -0.594128 0.769859 118 22 27
-0.779073 0.133296 0.445106 -0.255763 -0.966368 0.0268004 153 119 107
-0.966976 0.183313 0.42755 -0.425641 -0.556179 0.713789 104 70 52
-0.942537 -0.505454 -0.209571 -0.283892 -0.513289 0.809901 90 67 52
0.248068 0.180389 0.925532 -0.689251 -0.496885 0.527294 192 176 172
0.266714 0.0177329 0.692329 -0.0412299 -0.13338 0.990207 187 153 143
0.366884 -0.358789 0.525971 0.192311 -0.407095 0.892911 189 171 166
-0.000369334 -0.296049 0.463263 -0.21752 -0.96274 0.160673 154 142 139
0.108155 -0.418918 0.31042 -0.230095 -0.968014 -0.100029 153 146 143
-0.632043 -0.154422 0.266618 -0.481084 -0.649555 0.588758 121 29 30
-0.97756 0.14546 0.397468 -0.416929 -0.59901 0.683636 91 64 49
-1.09783 -0.112364 -0.0302975 -0.616633 -0.621372 0.483383 100 74 56
0.160216 -0.127314 0.695918 0.267157 -0.817554 0.51013 171 133 120
-0.63623 0.0415157 0.409019 0.209457 -0.796855 0.5667 160 122 108
-0.701618 -0.313817 0.114413 0.233681 0.080675 0.968961 131 23 23
