ply
format ascii 1.0
element vertex 310
property float x
property float y
property float z
property float nx
property float ny
property float nz
property uchar diffuse_red
property uchar diffuse_green
property uchar diffuse_blue
end_header
0.208984 0.415996 1.04448 0.139672 -0.509709 0.848934 149 23 29
0.151341 0.404567 1.06769 0.289516 -0.679941 0.673691 154 26 31
-0.0308622 0.422293 1.17651 0.521199 -0.634571 0.570676 81 50 38
-0.0042386 0.390962 1.13471 0.348365 -0.857018 0.379685 112 58 58
0.117033 0.296309 1.00228 0.0444501 -0.425462 0.903884 144 20 23
0.14312 0.28175 0.993091 0.214966 -0.375612 0.901502 160 51 58
0.0667124 0.349111 1.00762 0.41349 -0.862155 0.292771 179 144 150
0.041989 0.343709 1.02633 0.146786 -0.557461 0.817124 180 142 151
0.0617458 0.239254 0.971452 0.0517001 -0.477197 0.877274 178 156 155
0.0213281 0.239355 0.978719 -0.0231195 -0.539101 0.841924 174 146 146
0.345935 -0.0359136 0.66227 0.438349 -0.666619 0.602884 197 164 154
0.310077 -0.0192219 0.694871 0.390645 -0.364832 0.84516 169 131 121
0.254985 -0.0273788 0.697806 0.169527 -0.288555 0.942336 181 145 134
0.267888 -0.0430502 0.69586 -0.152281 -0.194168 0.969077 169 129 117
-0.105914 0.315897 0.977745 -0.20115 -0.914214 0.351783 131 97 97
-0.0815933 0.232483 0.970804 -0.656677 -0.466396 0.592664 178 158 158
0.0653056 0.0504093 0.799402 -0.0141388 -0.940756 0.338791 173 159 154
-0.165377 0.324786 0.967532 0.0454384 -0.996353 0.0722318 102 82 80
-0.158444 0.25171 0.959589 -0.269687 -0.914522 0.30153 149 131 129
0.371373 -0.447921 0.452634 0.307736 -0.691065 0.654009 186 170 167
-0.230196 0.371232 1.00206 -0.0985847 -0.985198 0.14024 99 56 39
0.186921 -0.224607 0.604443 -0.0816482 -0.705638 0.703851 182 151 142
-0.194182 0.314096 0.953182 0.172472 -0.938119 0.300309 86 62 54
0.365308 -0.466876 0.416334 0.0468307 -0.956314 0.288565 185 170 167
0.161292 -0.244845 0.556589 0.159662 -0.913114 0.375141 173 154 149
0.159178 -0.363297 0.485445 -0.615235 -0.374413 0.693759 162 150 147
0.159683 -0.396095 0.467168 -0.42859 -0.882937 0.191659 139 127 124
0.211802 -0.442584 0.409447 -0.454746 -0.668494 0.588491 147 135 128
-0.252308 0.402971 0.783014 -0.150334 -0.912546 -0.380342 36 21 15
0.148755 -0.399031 0.423371 -0.285052 -0.950793 0.121398 159 147 145
-0.0487102 -0.165129 0.53692 -0.715348 -0.580972 0.388265 157 129 119
0.0762312 -0.38811 0.323032 -0.410753 -0.911354 0.0267721 144 135 132
0.0425727 -0.354442 0.328098 -0.451928 -0.890716 0.0488448 146 139 138
-0.10785 -0.11718 0.432611 -0.847604 -0.528552 -0.046917 129 96 86
-0.291263 0.159662 0.569627 -0.716741 -0.417579 0.558489 119 17 20
0.0267125 -0.364006 0.246007 -0.380013 -0.923195 -0.0574552 105 88 85
-0.3447 0.256775 0.546338 -0.558193 -0.0556108 0.827845 139 107 109
0.00630909 -0.348956 0.247788 -0.503871 -0.851185 0.14696 155 149 147
-0.453351 0.370205 0.663888 0.148714 -0.988872 0.00397649 67 36 27
-0.301894 0.0757051 0.50901 -0.604234 -0.524193 0.600104 155 123 130
-0.311782 0.0603429 0.479138 -0.496532 -0.407129 0.766617 126 18 22
-0.332156 0.0923344 0.483732 -0.659662 -0.399555 0.636555 153 109 115
-0.167842 -0.175263 0.34045 0.123161 -0.34204 0.931579 141 100 105
-0.258757 -0.00774856 0.402264 -0.583921 -0.681181 0.441621 148 126 135
-0.443713 0.294125 0.532784 -0.404179 -0.30409 0.862652 76 21 22
-0.422063 0.398646 0.476495 -0.131382 -0.0110247 0.99127 104 59 62
-0.22193 -0.113629 0.341596 0.512289 -0.198785 0.83549 144 84 89
-0.333365 0.0428767 0.425231 -0.361303 -0.595624 0.71742 122 19 26
-0.420914 0.147776 0.45443 -0.495938 -0.789652 0.361242 118 33 37
-0.171986 -0.285403 0.263556 0.0892165 -0.675441 0.731997 152 104 110
-0.301859 -0.133489 0.359043 0.233399 -0.00928934 0.972337 117 18 23
-0.468521 0.149084 0.491095 0.423053 -0.593855 0.68437 147 102 95
-0.286867 -0.21974 0.333721 0.016091 -0.373184 0.927618 166 132 140
-0.410083 0.0734287 0.410372 -0.23968 -0.908518 0.34227 146 98 104
-0.327042 -0.173629 0.35739 0.0896792 -0.244914 0.965389 164 136 143
-0.340925 -0.237815 0.322806 -0.015529 -0.684772 0.728591 163 110 117
-0.429325 -0.00696651 0.354101 0.284074 -0.269131 0.920256 110 24 25
-0.428909 -0.0845002 0.377224 0.040835 -0.0792757 0.996016 155 115 119
-0.447539 -0.0902325 0.369353 0.262346 0.0228264 0.964704 162 115 120
-0.346469 -0.253553 0.293665 -0.0702586 -0.579066 0.812249 129 24 28
-0.486872 0.0220257 0.369414 0.0943427 -0.0746243 0.992739 154 107 97
-0.628554 0.234325 0.512469 0.0347491 -0.935542 0.351502 144 114 106
-0.372928 -0.254836 0.275386 -0.471495 -0.786131 0.399611 118 14 17
-0.488298 -0.119871 0.363757 -0.127093 -0.22174 0.966788 129 15 18
-0.738707 0.272287 0.485569 -0.299312 -0.747735 0.59271 136 106 99
-0.458297 -0.225745 0.260819 -0.34071 -0.8802 0.330402 144 101 110
-0.746743 0.186982 0.481733 -0.21196 -0.114705 0.970524 154 120 109
-0.506787 -0.193467 0.251888 -0.696546 -0.588288 0.41078 151 119 130
-0.7834 0.183978 0.466917 -0.342072 -0.224719 0.912407 148 113 100
-0.628137 -0.000301385 0.301312 -0.600527 -0.590549 0.53909 130 92 80
-0.607623 -0.0527136 0.289525 -0.599341 -0.0385672 0.799564 137 92 77
-0.511648 -0.223886 0.208597 -0.300464 -0.71619 0.629915 116 16 20
-0.548679 -0.211661 0.211835 -0.400924 -0.502428 0.766046 115 17 21
-0.60459 -0.148857 0.297033 -0.475612 -0.677025 0.561633 152 120 124
-0.684507 -0.0164819 0.250992 -0.455513 0.0112355 0.890158 140 98 86
-0.510771 -0.379831 0.126137 0.112257 -0.630101 0.768356 161 129 137
-0.853517 0.0480742 0.382011 0.247499 -0.573336 0.781044 102 61 54
-0.74312 -0.0845743 0.209874 -0.408224 -0.728177 0.550556 128 89 81
-0.608285 -0.372491 0.103487 -0.126692 -0.539513 0.832391 157 103 109
-0.928013 0.0818518 0.319967 -0.722216 -0.637085 0.269306 109 79 59
-0.83625 -0.116889 0.270311 -0.327834 -0.549557 0.768447 93 47 37
-0.516908 -0.595087 -0.0464682 -0.0821725 -0.994705 0.0617165 174 145 138
-0.756284 -0.176659 0.141484 0.722888 -0.344776 0.598801 122 68 53
-0.6981 -0.341811 0.11177 0.291465 0.0547293 0.955015 125 19 19
-0.869446 -0.119625 0.259342 -0.339529 -0.584498 0.736941 105 76 59
-0.735765 -0.340912 0.124458 0.0402421 0.0489531 0.99799 109 58 45
-0.715685 -0.386169 0.112212 0.40129 -0.247844 0.881782 120 63 48
-0.62157 -0.458963 -0.0131366 -0.392572 -0.25861 0.882614 136 93 88
-0.63558 -0.436335 0.00885574 0.294077 -0.650277 0.70047 102 21 23
-0.595645 -0.603081 -0.0238343 0.0171784 -0.640044 0.768146 111 69 56
-0.916147 -0.0924929 0.165063 -0.35808 -0.874753 0.326475 106 80 61
-0.889263 -0.134624 0.161738 -0.543805 -0.838098 0.0432121 108 80 60
-0.823163 -0.276076 0.10609 -0.505842 -0.648374 0.568977 105 78 60
-0.841897 -0.245245 0.1179 -0.556877 -0.538496 0.632384 105 79 61
-1.08815 0.149796 0.245349 -0.559604 -0.378152 0.737457 103 77 58
-0.787789 -0.399084 0.0230837 -0.659709 -0.660744 0.358052 105 78 56
-1.02655 -0.0567856 0.120027 -0.326087 -0.926055 0.189974 103 77 58
-1.08756 0.0552392 0.150609 -0.394548 -0.419038 0.817764 102 77 57
-0.829561 -0.402297 -0.022947 -0.68429 -0.335947 0.647215 106 80 60
-1.11733 0.115069 0.160713 -0.520397 -0.61293 0.594562 106 80 60
-1.01349 -0.0883322 0.0993002 -0.717703 -0.187115 0.670739 105 78 60
-0.8642 -0.352179 -0.0144393 -0.600973 -0.614886 0.510635 105 80 60
-0.942126 -0.220688 0.0345019 -0.45944 -0.536745 0.707687 83 60 48
-0.720547 -0.635099 -0.117847 -0.471839 -0.551004 0.688304 107 79 60
-1.2012 0.186678 0.237214 -0.28453 -0.817296 0.50107 97 76 64
-0.77656 -0.563914 -0.104192 -0.71645 -0.342019 0.608049 110 85 62
-1.11295 0.0386881 0.115192 -0.290229 -0.956554 -0.0277789 102 76 59
-0.896419 -0.339688 -0.034303 -0.605546 -0.407101 0.683799 78 54 40
-1.17843 0.133831 0.128087 -0.489314 -0.659513 0.570626 79 56 44
-0.855061 -0.443077 -0.0785231 -0.627734 -0.43467 0.645765 102 78 60
-1.01549 -0.160129 0.0257314 -0.731112 -0.390737 0.559285 72 49 37
-0.91085 -0.367272 -0.0542836 -0.151256 -0.543218 0.825855 106 81 61
-1.18951 0.108533 0.0983511 -0.352347 -0.548313 0.758423 104 78 60
-1.15324 0.0303678 0.0598113 -0.45681 -0.652997 0.604085 103 77 58
-0.917639 -0.402928 -0.0981783 -0.555917 -0.664593 0.499273 103 78 59
-1.22273 0.156536 0.118488 0.0921434 -0.140407 0.985797 94 72 58
-1.14343 -0.0156629 0.0448231 -0.376486 -0.743236 0.553046 96 71 55
-0.955841 -0.342102 -0.0799609 -0.821989 -0.512842 0.247643 103 78 57
-0.901583 -0.452876 -0.131005 -0.28339 -0.867736 0.408318 103 77 57
-0.862816 -0.530415 -0.17163 -0.552396 -0.734779 0.393648 104 79 59
-0.930635 -0.41694 -0.120174 -0.519094 -0.539885 0.662621 99 74 55
-0.943453 -0.437914 -0.15074 -0.472868 -0.621056 0.625049 62 43 33
-1.0249 -0.27315 -0.094211 -0.596169 -0.426971 0.67991 73 52 41
-0.976057 -0.369397 -0.119012 -0.343703 -0.503728 0.792544 99 76 57
-0.913788 -0.489442 -0.182771 -0.447259 -0.405789 0.797053 70 49 39
-1.21972 0.0558171 0.0257628 0.0366135 -0.217133 0.975455 98 75 58
-1.0861 -0.179114 -0.0534205 -0.240787 -0.95267 0.185589 75 52 39
-1.15978 -0.0934108 -0.00830919 0.0456203 -0.285935 0.957162 92 67 52
-0.97926 -0.408117 -0.156858 -0.549045 -0.574733 0.606821 97 73 55
-0.87727 -0.5998 -0.241513 -0.768245 -0.377012 0.517359 97 75 55
0.186362 0.317559 1.00596 0.0940993 -0.636 0.765931 161 27 31
0.137064 0.375005 1.02812 0.121577 -0.400568 0.908165 176 129 138
0.179135 0.261141 0.970175 0.157125 -0.54254 0.825205 183 151 155
0.117691 0.270163 0.991778 0.185818 -0.284395 0.940527 152 54 59
0.340113 0.0209896 0.708037 0.0247827 -0.161664 0.986535 196 166 160
0.0228021 0.253905 0.995873 0.115255 -0.23949 0.964033 157 75 79
0.440306 -0.428016 0.433692 0.394059 -0.650668 0.649114 87 52 45
-0.0904151 0.0621564 0.79454 -0.025853 -0.993421 0.111566 163 151 146
-0.128419 0.0556135 0.705957 -0.0406854 -0.558237 0.828683 145 107 91
-0.104428 7.42534e-05 0.663252 -0.357707 -0.914043 0.191238 161 127 115
0.13013 -0.408076 0.413991 -0.392319 -0.85105 0.349 158 148 148
-0.0674187 -0.194609 0.472343 -0.583676 -0.473947 0.659315 154 135 131
-0.24589 0.0383204 0.523826 -0.916589 -0.341812 0.207436 145 112 105
-0.00247298 -0.350374 0.203513 -0.345034 -0.932475 -0.106967 155 146 145
-0.167491 -0.138647 0.355867 -0.379783 -0.336486 0.861709 83 44 41
-0.357073 0.123465 0.524043 -0.200726 -0.681667 0.70359 147 121 126
-0.256791 -0.0306582 0.387972 -0.578092 -0.813583 -0.0623848 142 122 130
-0.378606 0.0816227 0.43894 -0.688594 -0.544656 0.478736 150 128 133
-0.476824 0.27551 0.504552 -0.487909 -0.465687 0.738297 63 21 21
-0.243872 -0.265508 0.308634 -0.00119515 -0.739494 0.673162 169 139 145
-0.268819 -0.292434 0.316644 0.2806 -0.657685 0.699081 167 142 148
-0.480099 0.108327 0.447554 0.520297 -0.521798 0.676031 162 118 108
-0.432616 0.0382206 0.375711 -0.0931157 -0.64755 0.756312 114 21 22
-0.459072 0.084087 0.392402 0.0212415 -0.30993 0.950521 157 112 105
-0.307339 -0.298928 0.29252 -0.532153 -0.539474 0.652519 138 28 32
-0.404832 -0.150157 0.369884 0.214479 -0.335157 0.917425 164 136 142
-0.353598 -0.244932 0.309409 0.261436 -0.303262 0.916343 138 41 45
-0.4493 -0.144851 0.369835 0.0652811 -0.262108 0.962828 141 42 46
-0.443829 -0.195713 0.325482 -0.229723 -0.813246 0.534658 124 14 18
-0.451981 -0.215939 0.298431 -0.0893683 -0.877421 0.471324 135 27 31
-0.576401 -0.198977 0.284663 0.0951459 -0.888295 0.44931 150 100 108
-0.678032 0.0314946 0.311435 -0.219589 -0.974687 -0.0420083 146 117 111
-0.61109 -0.152495 0.194716 -0.23333 -0.861104 0.451726 125 16 20
-0.861038 0.116336 0.434556 0.15824 -0.524304 0.836699 133 105 98
-0.454426 -0.467727 0.0360657 0.623722 -0.284484 0.728038 188 158 152
-0.838566 0.0971821 0.404616 0.553693 -0.396786 0.73211 143 116 107
-0.746132 -0.0304082 0.250335 -0.149661 -0.180314 0.972156 126 88 81
-0.960253 0.246418 0.457137 -0.115013 -0.926022 0.359519 88 48 38
-0.524331 -0.560296 0.0253135 -0.0509096 -0.662776 0.747085 165 134 126
-0.949388 0.132351 0.353824 -0.602254 -0.706955 0.370816 107 75 55
-0.706407 -0.289931 0.120742 0.48111 -0.214966 0.849896 140 47 49
-0.992526 0.186508 0.363404 -0.0958989 -0.914252 0.39363 100 70 53
-0.982206 0.15261 0.331555 -0.382492 -0.599367 0.703177 85 56 42
-0.555698 -0.574547 0.00697836 -0.0591147 -0.482945 0.873653 158 128 120
-0.931905 0.01217 0.266073 -0.48767 -0.596308 0.637647 78 52 41
-0.911297 -0.0245764 0.215255 -0.633991 -0.725275 0.268386 104 78 58
-0.579056 -0.606583 -0.0262249 -0.166261 -0.731407 0.661363 121 83 72
-0.989673 0.0812684 0.252416 -0.376338 -0.910859 -0.169428 106 78 60
-0.994793 0.093954 0.268666 -0.500112 -0.825002 0.263172 108 80 59
-1.01634 0.112692 0.262786 -0.413045 -0.901969 0.125875 98 70 52
-0.925914 -0.09213 0.190131 -0.152233 -0.988078 -0.0229493 105 78 60
-0.829951 -0.24236 0.133418 -0.808783 -0.383716 0.445681 109 81 60
-1.05353 0.152787 0.260492 0.0459897 -0.509111 0.859472 77 50 38
-1.07757 0.160201 0.286114 -0.132846 0.0302167 0.990676 81 55 42
-0.96074 -0.0668189 0.18538 -0.228246 -0.0822137 0.970126 85 60 47
-0.924851 -0.111104 0.129954 -0.398515 -0.914888 0.0645455 75 48 36
-0.769142 -0.446558 0.00530112 -0.668725 -0.324228 0.669091 107 79 59
-0.752078 -0.475373 -0.00324141 -0.629037 -0.564657 0.534299 110 83 61
-1.1406 0.22762 0.252253 -0.749339 -0.30622 0.587129 105 77 57
-0.851436 -0.298953 0.0577506 -0.539594 -0.563801 0.625273 107 81 61
-0.904912 -0.20137 0.107529 -0.306624 -0.783799 0.540038 97 70 53
-0.912793 -0.210405 0.0699709 -0.528052 -0.77279 0.352076 106 80 60
-1.09751 0.109958 0.162449 -0.360087 -0.830022 0.425911 106 80 60
-0.881818 -0.320555 0.00356074 -0.7171 -0.451882 0.530633 107 83 62
-0.726909 -0.595554 -0.0922469 -0.553522 -0.62446 0.551057 91 68 54
-1.11325 0.0929713 0.159087 -0.165832 -0.857116 0.487701 106 80 61
-0.799428 -0.49115 -0.0499822 0.447446 -0.19949 0.871777 108 83 62
-0.795411 -0.503938 -0.0745882 -0.6111 -0.335693 0.716844 109 83 61
-0.997532 -0.161609 0.0499752 -0.692289 -0.348016 0.632156 104 79 60
-0.736366 -0.621856 -0.124164 -0.349778 -0.590988 0.726903 109 84 63
-1.1915 0.185847 0.165881 -0.0943304 -0.975454 0.198974 104 80 62
-0.969572 -0.224245 0.00406868 -0.438884 -0.678665 0.588893 102 76 56
-1.15362 0.105943 0.110733 -0.589165 -0.385658 0.710037 80 58 46
-0.779586 -0.607124 -0.139983 -0.61852 -0.383148 0.686025 75 54 41
-1.20886 0.0907613 0.0952707 -0.165624 -0.267029 0.949349 103 79 61
-0.997231 -0.276905 -0.0695162 -0.589179 -0.569519 0.573164 95 70 52
-1.2472 0.162528 0.127772 0.389342 0.0792288 0.91768 104 81 63
-0.858233 -0.5455 -0.187071 -0.436042 -0.766442 0.471629 104 79 60
-1.18012 0.028818 0.0158478 -0.0342664 -0.501045 0.864743 79 58 47
-1.02308 -0.255629 -0.071283 -0.736212 -0.314035 0.599477 72 51 41
-1.00848 -0.308573 -0.0871526 -0.246073 -0.51248 0.822686 69 48 37
-0.98767 -0.34664 -0.117041 -0.145233 -0.988584 0.040095 74 53 40
-1.18492 -0.0295589 -0.00512899 -0.0353896 -0.195542 0.980056 95 70 55
-0.871209 -0.577224 -0.200709 -0.379815 -0.652837 0.655396 78 59 47
-1.05471 -0.276472 -0.0891114 -0.254926 -0.850522 0.460027 97 73 56
-0.991121 -0.373736 -0.135159 -0.323735 -0.448579 0.83305 99 76 57
-0.956723 -0.460207 -0.180102 -0.380577 -0.817552 0.432169 96 71 54
-0.948078 -0.49157 -0.195688 -0.357862 -0.38424 0.851055 97 74 55
0.183682 0.400884 1.03808 -0.0264006 -0.735616 0.676885 147 42 50
0.116272 0.373955 1.03216 0.100187 -0.259476 0.960539 181 118 129
-0.121257 0.0903453 0.714832 -0.787893 -0.373546 0.489578 142 109 97
0.0834758 -0.364879 0.44631 -0.386567 -0.871665 0.301273 153 141 138
0.13451 -0.420151 0.398217 -0.326253 -0.818795 0.472371 160 151 149
-0.301187 0.18663 0.55244 -0.259491 -0.449412 0.854806 113 11 14
-0.0218343 -0.357182 0.241602 -0.0781701 -0.996427 0.032003 158 149 148
0.034469 -0.351234 0.120703 -0.478674 -0.861737 -0.168169 131 119 117
-0.407005 0.263386 0.500332 -0.581274 -0.0654598 0.811071 141 116 119
-0.324238 0.0578256 0.459602 -0.386887 -0.747682 0.539712 133 22 27
-0.16746 -0.208491 0.29952 0.421543 -0.208605 0.882489 122 15 18
-0.314614 0.00123994 0.403648 -0.434552 -0.344764 0.832047 157 136 146
-0.289726 -0.0542698 0.339479 -0.518365 0.0340852 0.85448 127 23 27
-0.264071 -0.236617 0.330891 0.117341 -0.391844 0.912518 160 125 132
-0.228583 -0.314586 0.283727 0.050355 -0.998725 0.00349538 170 151 160
-0.532096 0.276888 0.46989 -0.185441 -0.251609 0.949897 136 103 94
-0.587179 0.312511 0.518521 0.454567 -0.845743 0.279439 43 18 14
-0.370395 -0.202404 0.347552 -0.418286 -0.651326 0.633096 167 125 132
-0.342637 -0.38139 0.212495 -0.128439 -0.610662 0.781406 170 137 146
-0.595837 -0.00809093 0.382753 0.374911 -0.925994 0.0444718 151 116 106
-0.457684 -0.235927 0.199948 -0.538097 -0.841763 0.0434434 142 75 83
-0.505324 -0.245541 0.15112 -0.0292703 -0.521563 0.852711 117 16 20
-0.499941 -0.311878 0.122761 -0.55792 -0.0815224 0.82588 155 124 131
-0.85455 0.246769 0.457191 -0.0901559 -0.0923256 0.991639 137 106 98
-0.491534 -0.395041 0.133419 -0.285401 -0.938402 0.194802 164 145 153
-0.593836 -0.226581 0.167925 -0.386239 -0.752262 0.53378 146 120 129
-0.818405 0.0617143 0.38243 0.115335 -0.64104 0.758792 144 114 105
-0.91373 0.170349 0.422123 -0.117227 0.0113936 0.99304 95 45 33
-0.645401 -0.18299 0.117715 -0.745003 -0.378727 0.549123 122 15 19
-0.985973 0.179728 0.343092 -0.185274 -0.912427 0.364899 93 64 48
-0.629319 -0.404541 0.068998 -0.126127 -0.907082 0.401613 153 108 114
-0.545968 -0.590712 -0.00398 0.0689733 -0.570065 0.818699 163 134 127
-1.00093 0.107659 0.288156 0.0126793 -0.994179 0.10699 107 79 57
-1.04697 0.131487 0.252928 -0.632377 -0.317376 0.706663 81 55 43
-0.892396 -0.20587 0.131626 0.0186679 -0.566714 0.823704 84 59 46
-0.808208 -0.527215 -0.0975842 -0.582101 -0.717738 0.382115 107 81 61
-1.19708 0.148373 0.127731 -0.430777 -0.126827 0.893502 73 52 41
-0.928919 -0.358442 -0.0592348 -0.414129 -0.803312 0.428004 105 79 58
-0.848062 -0.517619 -0.127046 -0.599947 -0.448566 0.662459 93 70 55
-0.79387 -0.635764 -0.183981 -0.453061 -0.814875 0.361543 109 85 64
-1.07391 -0.146924 0.0012111 -0.491949 -0.83143 0.258284 100 75 57
-0.86039 -0.597161 -0.218291 -0.597856 -0.556604 0.576854 84 65 51
-1.12983 -0.160211 0.00297902 -0.190817 -0.502494 0.843261 94 70 54
-0.952135 -0.477604 -0.189855 -0.199998 -0.736289 0.646435 96 71 53
-0.872533 -0.633188 -0.261479 -0.61192 -0.535161 0.582371 100 78 59
0.0687176 0.251878 0.985316 0.156502 -0.234636 0.959403 171 124 129
-0.0431332 0.329091 1.01914 -0.726215 -0.452465 0.517579 164 147 153
0.162297 -0.185255 0.651516 -0.18204 -0.344184 0.921086 160 116 102
0.00160874 0.0428002 0.73231 -0.0158467 -0.736554 0.676192 166 130 117
0.0603366 -0.385247 0.303875 -0.855317 -0.286925 0.431401 125 111 106
-0.189691 -0.0337669 0.50828 -0.876718 -0.291894 0.382315 151 120 110
-0.0823332 -0.204978 0.425935 -0.897259 -0.412013 0.158654 143 127 123
-0.0991269 -0.178867 0.323763 -0.9318 -0.311752 0.185904 137 105 102
-0.33691 0.122669 0.514747 -0.567939 -0.468392 0.676797 154 134 139
-0.29838 0.0291222 0.478289 -0.225532 0.0368414 0.973539 116 13 16
-0.278295 -0.0829618 0.348986 0.126868 0.0462417 0.990841 127 22 26
-0.280836 -0.121109 0.35708 0.0515343 -0.270347 0.961382 117 12 16
-0.392364 0.0271829 0.373786 -0.478927 -0.449632 0.753962 129 14 17
-0.393182 -0.0988111 0.370207 -0.158745 0.06088 0.985441 166 137 143
-0.321471 -0.303119 0.279674 -0.516555 -0.680058 0.520281 126 17 21
-0.439305 -0.216596 0.317303 -0.327921 -0.911178 0.249442 127 16 19
-0.817778 0.110951 0.396325 -0.101133 0.0290392 0.994449 150 118 108
-0.802867 0.0815074 0.384798 -0.261444 -0.524586 0.81022 151 119 108
-0.548605 -0.404799 0.0760794 -0.213584 -0.970193 0.114485 146 27 30
-0.539347 -0.414309 0.0635981 0.182842 -0.964403 0.191042 138 33 38
-0.751823 -0.0574206 0.21836 0.685204 -0.573473 0.449025 129 91 82
-0.640039 -0.219752 0.0868055 -0.685992 -0.12976 0.715945 105 24 29
-1.01577 0.129576 0.309406 -0.379363 -0.522679 0.763473 108 79 59
-0.908878 -0.0847321 0.205117 -0.269792 -0.961762 -0.0471921 109 82 62
-0.984505 -0.0977679 0.115849 -0.509676 -0.856463 0.0818696 108 81 60
-0.828934 -0.4836 -0.103418 -0.110107 -0.217363 0.969861 105 79 59
-1.12815 0.0124041 0.0798254 -0.403083 -0.183541 0.89657 105 80 62
-0.989019 -0.235633 -0.0140361 -0.789394 -0.410863 0.456124 103 79 59
-1.23193 0.103997 0.0933925 -0.110708 -0.587036 0.801955 100 76 57
0.399833 0.109722 0.843569 0.366953 -0.598019 0.712544 190 177 174
0.14768 -0.197517 0.641502 -0.118997 -0.373358 0.920024 159 118 106
-0.203298 0.386011 0.794572 -0.680967 -0.622322 0.386004 98 79 72
-0.225699 0.278122 0.744875 -0.406148 -0.912623 -0.0465028 130 116 112
-0.536101 0.160215 0.504914 0.496428 -0.421394 0.758939 154 117 108
-0.504414 -0.0932123 0.347464 -0.806336 -0.169968 0.56651 137 17 21
-0.546377 -0.155101 0.299371 -0.822687 -0.344138 0.452499 166 140 148
-0.799123 -0.034521 0.228051 0.437426 0.0303006 0.898743 122 67 53
0.105296 0.234529 0.983554 0.386332 -0.434119 0.81381 180 148 150
-0.0230688 -0.299793 0.403041 -0.564208 -0.7024 0.433941 152 141 138
-0.34187 0.00838524 0.426697 0.0659364 -0.689442 0.721333 130 65 73
-1.04905 -0.0608149 0.0855703 -0.468359 -0.748989 0.468672 81 57 43
0.35034 -0.324643 0.551139 0.325855 -0.566474 0.756919 195 177 172
-0.141493 0.171257 0.898689 -0.436182 -0.677744 0.591954 156 144 140
-0.00993635 -0.292731 0.487074 0.0824478 -0.8569 0.508847 156 144 141
-0.389189 -0.330168 0.228342 -0.41465 -0.70617 0.573924 148 100 108
-0.374462 0.478548 0.530397 -0.443465 -0.896052 0.0207307 41 19 16
-0.664486 0.0540569 0.431605 -0.140393 -0.929357 0.341447 167 130 118
