ply
format ascii 1.0
element vertex 299
property float x
property float y
property float z
property float nx
property float ny
property float nz
property uchar diffuse_red
property uchar diffuse_green
property uchar diffuse_blue
end_header
0.707588 0.568125 0.449071 0.908318 0.0215433 0.417727 189 168 172
0.710031 0.541355 0.425894 0.958766 0.27455 0.0734136 182 115 117
0.725107 0.394793 0.436982 0.982001 -0.177775 0.0637954 182 113 115
0.703639 0.71001 0.395026 0.945213 0.226596 -0.235004 164 59 62
0.681801 0.706573 0.341295 0.884747 0.0822052 -0.458765 140 20 23
0.501155 -0.128489 0.599023 0.872725 -0.475252 0.111736 214 188 182
0.740102 0.354526 0.364474 0.981474 0.131089 -0.13973 185 109 111
0.67735 0.645374 0.334295 0.890044 -0.12941 -0.437121 186 163 167
0.690368 0.594581 0.336473 0.778553 0.385093 -0.495537 182 162 167
0.643039 0.00621251 0.454046 0.852054 -0.521548 -0.0446092 187 167 162
0.711645 0.404685 0.344137 0.809685 0.46878 -0.353066 170 74 75
0.699362 0.471132 0.332759 0.894686 -0.206003 -0.396357 188 159 163
0.697219 0.503387 0.31862 0.845834 -0.0382906 -0.532069 143 28 31
0.688249 0.515899 0.305453 0.778198 -0.0502847 -0.626002 141 20 22
0.665629 0.540606 0.282365 0.648029 0.119017 -0.752259 131 21 23
0.436887 -0.217726 0.575891 0.890831 -0.301283 0.340072 188 158 149
0.547307 -0.15426 0.478983 0.927262 -0.339708 0.157431 185 154 144
0.70787 0.380428 0.281379 0.994769 0.0851892 0.056368 187 168 166
0.641697 -0.00111062 0.385883 0.620978 -0.702268 -0.348145 202 172 163
0.644397 0.01253 0.361918 0.72931 -0.664456 -0.163111 201 168 158
0.637838 0.526452 0.258362 0.698868 0.00273689 -0.715245 146 64 67
0.69849 0.276377 0.24747 0.840468 -0.229673 -0.490778 190 174 166
0.658612 -0.00728723 0.308669 0.844094 -0.477514 -0.243898 189 153 143
0.675455 0.0742476 0.26368 0.929318 -0.320662 -0.183153 200 169 157
0.650505 -0.437546 0.32041 0.86305 -0.375881 0.33743 107 70 61
0.610329 -0.192176 0.30576 0.87402 0.24195 0.421366 202 185 182
0.666552 0.136857 0.190929 0.908302 0.387066 -0.158641 192 160 148
0.669116 -0.413039 0.277051 0.848236 -0.506313 0.15538 90 53 46
0.629167 -0.105729 0.222441 0.928156 0.229212 0.293239 173 138 123
0.633646 -0.147274 0.236661 0.894299 0.404973 0.190331 185 163 156
0.679385 -0.400131 0.228627 0.935748 -0.35169 0.0262742 84 49 43
0.709114 -0.33909 0.204034 0.780452 -0.606024 -0.153721 190 173 169
0.639929 -0.104889 0.19077 0.972815 -0.225389 -0.0532097 176 138 122
0.60238 0.255168 0.140723 0.789018 0.138207 -0.598623 154 126 112
0.661486 0.0201147 0.13852 0.876695 -0.0503914 -0.478399 172 130 112
0.652696 0.0880656 0.132396 0.864697 0.080089 -0.495867 178 137 120
0.608983 0.223391 0.131353 0.731079 0.428359 -0.531068 161 124 109
0.599753 0.271835 0.133402 0.651452 -0.154269 -0.74284 156 130 116
0.680045 -0.39622 0.196726 0.949069 -0.251414 -0.189895 90 56 50
0.5919 0.215001 0.102877 0.773559 0.452957 -0.443211 174 138 126
0.559054 0.356779 0.100879 0.406679 0.216452 -0.887558 165 149 140
0.650859 -0.0089301 0.112289 0.918157 -0.0641109 -0.390995 174 133 117
0.6168 0.102784 0.0650956 0.848319 0.128841 -0.513571 183 146 133
0.617292 0.0994913 0.0673589 0.866708 0.17534 -0.466984 183 146 133
0.52152 0.312872 0.0695198 0.84337 0.349336 -0.408279 162 132 120
0.629451 -0.0919384 0.070929 0.90691 0.370291 -0.200994 195 172 164
0.657276 -0.371388 0.0859942 0.842629 -0.330235 -0.425349 186 172 169
0.134 0.622803 0.154492 0.302309 -0.744356 -0.595435 48 24 16
0.596725 -0.0116375 0.0159691 0.231238 -0.636716 -0.73561 161 121 102
0.604692 0.0206545 -0.00161881 0.250622 -0.530042 -0.810089 172 137 123
0.574273 -0.0234391 -0.0119885 0.685565 0.0249613 -0.727584 159 126 111
0.565771 -0.0555884 -0.02932 0.679694 0.368719 -0.634085 175 156 148
0.496617 0.16551 -0.0252234 0.600793 0.313921 -0.735187 163 128 114
0.177725 0.526189 0.071302 0.804026 0.594533 -0.00847662 30 14 12
0.499204 0.129518 -0.0357453 0.638684 0.103415 -0.762488 161 125 109
0.597046 -0.244299 -0.0268986 0.808224 0.0959545 -0.581005 180 163 156
0.450062 0.201986 -0.0393558 0.400607 0.350068 -0.846739 153 117 102
0.459903 0.0434358 -0.0639931 0.452357 0.352091 -0.819393 150 117 101
0.226817 0.223398 -0.119097 0.597031 0.524576 -0.606937 154 116 119
0.195658 0.294253 -0.103225 0.943393 0.0121696 -0.331455 111 32 36
0.443133 -0.259339 -0.123324 0.445902 -0.0406375 -0.89416 144 124 113
0.259159 -0.00456946 -0.0945369 0.881631 -0.212994 -0.421142 119 83 77
0.190163 0.300318 -0.14393 0.943268 0.324224 0.0715851 176 143 147
0.430528 -0.218312 -0.14718 0.526507 -0.608494 -0.593737 166 151 145
0.426893 -0.285562 -0.133497 0.210215 0.114575 -0.970918 162 146 138
0.42164 -0.234433 -0.143113 0.427536 -0.610118 -0.667061 144 124 116
0.234595 0.100626 -0.133098 0.66722 -0.00434399 -0.744847 151 114 113
-0.129079 0.715679 -0.124935 0.436657 -0.791426 -0.427755 67 36 24
0.198325 -0.0585956 -0.159702 0.442364 -0.19874 -0.874538 152 117 116
0.0240764 -0.280173 -0.0672302 0.309685 -0.873757 -0.375025 108 17 20
0.160243 -0.112486 -0.172867 0.611696 -0.0794194 -0.787097 158 131 131
0.167984 0.0154185 -0.221511 0.840431 -0.428522 -0.331729 151 38 40
0.140916 0.179853 -0.259774 0.641743 0.140927 -0.75386 173 152 156
0.106534 0.244806 -0.264312 0.320509 0.141711 -0.936586 125 22 23
-0.128767 -0.362378 -0.064608 0.539624 -0.822285 0.180702 78 32 28
0.0474523 -0.210291 -0.158793 0.311363 -0.842549 -0.439505 151 132 139
0.0978058 -0.152419 -0.198401 0.622434 -0.402405 -0.671302 116 18 20
0.143647 0.138055 -0.269941 0.310462 0.155092 -0.937848 162 138 142
-0.0685843 0.50876 -0.292796 0.653505 0.636888 -0.409029 171 145 137
0.0873375 -0.107777 -0.225721 0.448387 -0.623107 -0.640849 108 15 18
0.0908646 0.199253 -0.283861 0.515567 0.0835263 -0.852768 144 111 112
-0.0306265 -0.232353 -0.177295 0.691483 -0.704622 0.159245 101 26 25
0.0366262 -0.175312 -0.205448 0.161773 -0.637423 -0.75334 147 129 134
0.0730532 0.154743 -0.304577 0.75056 0.175422 -0.637092 158 113 116
-0.142219 0.597126 -0.313786 0.84675 0.406595 -0.343066 48 25 18
-0.161821 -0.498445 -0.086294 0.733458 0.629025 0.257617 149 110 98
-0.0747101 0.511097 -0.342078 0.697453 0.653944 -0.293115 174 147 140
0.0752819 0.0440199 -0.316801 0.93712 -0.184444 -0.296291 157 86 89
0.0891641 0.0836432 -0.314514 0.993957 0.101183 -0.0425697 163 105 109
0.0539138 0.159192 -0.360856 0.840371 -0.393845 -0.372374 130 21 24
0.00822992 -0.290681 -0.249421 0.799035 -0.247419 0.548021 99 55 47
0.0637952 0.101931 -0.364765 0.747176 0.586652 -0.312358 147 24 27
0.0767197 -0.0128073 -0.355532 0.97728 0.117135 0.176641 169 31 34
-0.141869 -0.437283 -0.208643 0.880095 -0.414523 -0.231526 157 117 103
0.0870335 -0.152903 -0.371789 0.82914 0.0197665 0.558692 189 156 149
0.0790866 0.00381768 -0.370652 0.990121 0.117157 0.0770282 165 26 30
-0.226551 0.641232 -0.401831 0.969134 0.2361 0.0709661 118 67 53
0.00424079 -0.359595 -0.303706 0.587846 -0.657912 0.470733 169 135 124
0.0379189 0.0884054 -0.416214 0.738195 0.578071 -0.347712 180 157 162
0.00697542 0.205961 -0.447842 0.79163 0.553413 -0.258951 186 151 158
-0.0472392 -0.402242 -0.3069 0.820459 -0.551467 -0.150768 170 139 130
0.0806152 -0.130709 -0.391694 0.877544 -0.0714149 0.474148 187 150 143
0.118069 -0.103207 -0.437181 0.700075 -0.292732 0.651308 189 158 150
-0.147796 0.443534 -0.470019 0.872468 0.411291 -0.263894 160 132 125
0.0595114 0.0374847 -0.438981 0.910997 0.339956 -0.233484 189 171 175
-0.202611 0.549048 -0.487738 0.813549 0.495601 -0.304169 105 58 48
-0.168289 0.388247 -0.52343 0.634045 0.398686 -0.662597 134 90 77
-0.000711434 0.063874 -0.529217 0.634003 0.140397 -0.76048 145 21 23
-0.189818 -0.663702 -0.326015 0.689142 -0.716704 -0.106856 166 137 129
0.188195 -0.199836 -0.572407 0.961338 0.0462636 -0.271457 190 160 151
-0.285311 -0.705218 -0.33406 0.596027 -0.702627 -0.388673 103 72 60
-0.236019 -0.675048 -0.383884 0.378135 -0.851967 -0.362169 122 106 84
0.16791 -0.189147 -0.634284 0.819571 -0.0776717 -0.567689 182 154 146
-0.0549364 -0.500609 -0.541967 0.945011 -0.0815166 0.316715 128 94 83
0.0177303 -0.425382 -0.60989 0.678968 -0.660671 -0.320184 167 142 135
0.11795 -0.233059 -0.679793 0.805994 -0.114548 -0.580735 181 151 141
-0.136928 -0.569567 -0.532086 0.361661 -0.82044 -0.442808 113 97 79
-0.0294773 -0.447332 -0.612957 0.762496 -0.629228 -0.150569 132 101 94
0.0419774 -0.396612 -0.656372 0.710659 -0.681733 -0.173795 174 151 147
-0.232999 0.25466 -0.770547 0.563931 0.515087 -0.645498 89 72 61
0.0581332 -0.205321 -0.78772 0.744838 0.336455 -0.576206 162 130 119
-0.0931984 -0.455584 -0.692115 0.336047 -0.834694 -0.4363 120 104 85
0.0581008 -0.316808 -0.772304 0.811396 -0.340861 -0.474816 165 140 133
-0.0875462 -0.432017 -0.723912 0.618578 -0.732162 -0.28513 99 75 61
0.0619402 -0.30156 -0.775793 0.806486 -0.411949 -0.42412 167 142 135
-0.00815101 -0.351772 -0.770849 0.63915 -0.600044 -0.481075 154 133 127
0.0166547 -0.28896 -0.897659 0.625316 -0.740347 -0.246714 132 105 83
-0.0276937 -0.309472 -0.901144 0.323883 -0.860074 -0.394174 85 71 58
-0.155166 -0.340595 -0.906904 0.336336 -0.717867 -0.609544 103 91 74
-0.0594472 -0.30034 -0.930687 0.313177 -0.696321 -0.6458 112 101 80
0.520813 0.299906 0.770253 0.831841 -0.421973 0.360528 155 38 42
0.604139 0.347465 0.635653 0.935786 0.234865 0.262948 192 139 145
0.694829 0.700994 0.419521 0.96009 0.270952 0.0693691 163 54 56
0.718097 0.466127 0.414758 0.885442 -0.395685 0.243773 195 161 166
0.722829 0.405849 0.400784 0.99204 0.12583 0.00472213 166 63 64
0.749662 0.340467 0.379306 0.943393 0.319568 0.0888027 167 82 82
0.53918 -0.0828848 0.558795 0.937902 -0.341612 0.0603326 199 170 162
0.721729 0.372928 0.32836 0.855993 0.505649 -0.10768 174 96 97
0.656077 0.671112 0.309418 0.695987 -0.0421002 -0.71682 177 139 145
0.673366 0.508914 0.293577 0.785945 0.0477091 -0.616454 139 36 38
0.703933 0.39512 0.272857 0.958913 0.277004 -0.061281 192 172 171
0.623144 0.581122 0.257338 0.500547 0.283755 -0.817885 134 19 20
0.649652 0.0362079 0.338521 0.445289 -0.798067 -0.405965 197 161 149
0.62341 -0.0813911 0.352988 0.89312 -0.446114 -0.057618 184 157 149
0.609414 0.552315 0.24154 0.599062 0.146847 -0.787121 134 34 35
0.576114 -0.230744 0.379526 0.921251 -0.221121 0.320003 203 186 182
0.665193 0.174388 0.190858 0.949299 -0.00238291 -0.314365 166 133 118
0.678816 -0.397644 0.262348 0.861149 -0.507318 -0.0323991 100 64 56
0.674219 -0.009483 0.154644 0.950166 0.182013 -0.253093 189 154 141
0.679253 -0.420618 0.216564 0.808327 -0.423673 0.408789 71 41 35
0.563359 0.447488 0.111466 0.734592 0.109595 -0.6696 171 157 151
0.619875 -0.526486 0.2143 0.986188 0.163979 -0.0233475 70 40 35
0.568308 0.235176 0.0817848 0.719419 0.314672 -0.619207 168 129 114
0.593175 0.173246 0.0646462 0.780726 0.444449 -0.439241 179 146 135
0.67834 -0.265798 0.0757922 0.900388 -0.00420084 -0.435068 180 160 150
0.629417 -0.00559072 0.0522109 0.849043 0.486872 -0.205137 187 152 139
0.604107 -0.419951 0.0986643 0.805913 -0.591566 -0.0235475 167 151 148
0.656656 -0.213055 0.030517 0.843539 -0.0126956 -0.536918 182 162 153
0.560911 0.0986445 0.00163009 0.485205 0.321871 -0.813004 152 110 90
0.511337 0.13691 -0.0239162 0.62572 0.196777 -0.75482 166 128 113
0.504249 0.0519524 -0.0294886 0.443536 -0.285416 -0.849596 150 115 96
0.574575 -0.17843 -0.0476421 0.889467 0.131735 -0.4376 186 169 164
0.5609 -0.226215 -0.0587481 0.650685 0.125853 -0.748845 123 94 83
0.510175 -0.0148395 -0.0711463 0.514245 0.401548 -0.757833 167 149 142
-0.0612245 0.699822 -0.0127516 0.44006 -0.825556 -0.353278 58 30 22
0.106913 0.443488 -0.0513441 0.814926 0.577232 -0.0519506 160 141 146
0.496393 -0.26698 -0.106587 0.355383 0.245384 -0.901936 160 144 136
0.130341 0.397121 -0.142597 0.615938 0.633963 -0.467664 133 16 19
0.240316 0.0463486 -0.123991 0.950762 -0.0603344 -0.303995 146 117 114
-0.0408689 0.535287 -0.148336 0.593731 0.601959 -0.533975 54 26 22
0.0570384 0.413742 -0.195524 0.44232 0.419467 -0.792717 148 41 43
0.138227 0.303072 -0.230376 0.622729 0.429682 -0.653897 173 159 164
0.12583 -0.156849 -0.157704 0.762486 -0.643361 0.0685683 125 19 20
-0.0386256 0.507432 -0.226078 0.965412 -0.149921 -0.213313 173 146 140
0.115893 -0.109007 -0.21505 0.449354 -0.568223 -0.689351 115 20 22
-0.191899 -0.426011 -0.0403544 0.860544 -0.0705694 0.504465 144 108 102
-0.122823 0.626862 -0.298889 0.525557 0.0964916 -0.845269 54 28 18
0.074865 -0.0757869 -0.279144 0.725091 -0.536188 -0.432139 127 33 37
0.0625931 -0.120717 -0.312469 0.95369 0.0686838 0.292844 91 41 41
0.069102 0.0353559 -0.344514 0.938559 -0.010194 0.344967 143 21 24
0.0445257 0.150781 -0.374151 0.644954 -0.262731 -0.71764 147 64 67
-0.152518 -0.56653 -0.238819 0.7204 -0.492316 -0.488517 167 129 115
0.0296854 0.0532309 -0.472127 0.617181 0.621971 -0.481913 164 76 80
-0.0383951 0.220792 -0.499179 0.658452 0.694879 -0.289109 145 26 27
-0.245474 -0.683394 -0.263823 0.905187 -0.396095 0.1541 174 148 139
-0.134282 0.313394 -0.519245 0.870836 0.34838 -0.346809 173 136 126
-0.0483272 0.0126706 -0.579495 0.604533 -0.0257086 -0.796165 158 126 128
-0.0437321 0.0765857 -0.587153 0.890928 -0.340322 -0.300714 111 28 31
0.125042 -0.342653 -0.606012 0.881196 -0.396723 -0.257109 184 156 148
0.116397 -0.179627 -0.68767 0.924031 -0.107287 -0.366957 168 131 118
-0.110042 -0.517995 -0.608008 0.368544 -0.830442 -0.417783 101 85 71
-0.0649805 0.0247434 -0.750232 0.752181 0.0305822 0.658247 112 45 35
-0.0741647 -0.491077 -0.646561 0.394898 -0.866368 -0.305715 122 107 85
-0.0766496 -0.487868 -0.644108 0.339075 -0.842311 -0.418976 122 106 84
0.100595 -0.262236 -0.744722 0.899305 0.385647 -0.206218 182 156 148
-0.0872495 -0.466614 -0.678371 0.331622 -0.787055 -0.520165 123 108 87
0.0689772 -0.279008 -0.782048 0.569169 -0.467731 -0.67622 166 143 135
0.0251025 -0.216114 -0.806605 0.549305 -0.154214 -0.821269 143 110 99
-0.0758105 -0.382065 -0.810771 0.354657 -0.763487 -0.539727 120 106 85
0.0169789 -0.226436 -0.875712 0.945892 -0.0729007 0.316185 15 10 9
0.000499497 -0.309965 -0.869733 0.699563 -0.686762 -0.197404 132 105 85
-0.011504 -0.161207 -0.91493 0.743946 0.428938 -0.512401 98 58 48
-0.322667 -0.440805 -0.810471 0.575044 -0.731108 -0.367158 107 99 79
-0.0561221 -0.261281 -0.965083 0.434429 -0.239421 -0.868302 98 70 58
0.697488 0.728495 0.371126 0.913945 -0.17903 -0.364215 182 122 126
0.70787 0.544185 0.357711 0.954395 -0.0758463 -0.288751 160 60 62
0.693083 0.110259 0.30699 0.900707 -0.430648 -0.0571862 174 153 142
0.599081 0.666356 0.252385 0.290543 0.333893 -0.896716 156 123 126
0.637299 -0.112918 0.277227 0.985949 0.165533 -0.0224661 42 38 39
0.666539 -0.0430752 0.210132 0.86219 -0.429646 0.268389 195 164 156
0.669146 -0.0397365 0.171413 0.99334 0.0928706 0.0681935 189 155 144
0.651257 0.107709 0.135432 0.826438 0.0899462 -0.555797 172 130 111
0.697669 -0.290048 0.135659 0.994864 0.0272209 0.0974926 192 174 166
0.635298 -0.120161 0.12972 0.992403 0.0901149 0.0837552 192 166 155
0.622947 -0.0850927 0.0517122 0.864805 0.49581 -0.0792732 192 169 160
0.574318 0.105195 0.0153488 0.65973 0.33919 -0.670601 153 111 91
0.560785 0.147126 0.0294718 0.400069 0.361753 -0.842068 154 113 95
0.448649 0.309923 0.0103335 0.540637 0.408741 -0.735284 155 123 110
0.606971 -0.205472 -0.00919565 0.670307 0.195886 -0.715764 113 84 73
0.5942 -0.276446 -0.0491908 0.650415 -0.0349719 -0.758774 177 159 152
0.492882 -0.0177082 -0.0814313 0.506659 0.31717 -0.801686 166 149 141
0.455854 0.108506 -0.0685385 0.425506 0.0895176 -0.900517 163 131 118
0.537203 -0.202732 -0.0766558 0.576011 -0.0663311 -0.814746 164 145 140
0.082506 0.468519 -0.0450539 0.736242 0.65292 -0.177886 154 115 121
0.241142 0.147212 -0.127165 0.477624 0.158119 -0.864219 119 20 22
-0.0789247 0.574275 -0.138389 0.573312 0.577363 -0.581348 45 21 14
0.180041 0.248528 -0.199942 0.666954 0.0239588 -0.744713 130 29 33
0.204871 0.142122 -0.209779 0.963383 0.0324513 -0.266156 190 172 177
0.145854 0.307604 -0.213137 0.652206 0.418543 -0.632019 176 162 167
0.0223014 -0.266748 -0.100021 0.548059 -0.817573 -0.176652 126 20 22
0.112705 0.166224 -0.282777 0.562093 0.155279 -0.812367 138 108 111
0.066793 0.282186 -0.273221 0.344403 0.253248 -0.90402 125 75 64
0.131818 -0.00646074 -0.264578 0.644882 -0.346401 -0.681273 176 157 161
0.139235 0.0815663 -0.270148 0.315766 -0.000975539 -0.948837 117 14 16
0.00923253 -0.198883 -0.184171 0.348244 -0.636786 -0.687917 142 115 121
0.0509004 0.14306 -0.353365 0.755993 -0.379518 -0.53333 127 16 19
0.017921 0.203035 -0.414167 0.857892 0.394608 -0.329098 188 173 179
-0.267066 -0.721854 -0.141475 0.542529 -0.839679 0.0245339 193 170 164
0.00413703 0.142467 -0.472359 0.908032 -0.41887 0.005128 121 11 15
0.0473898 0.0465446 -0.45556 0.829165 0.512271 -0.22375 186 153 159
-0.18837 -0.646403 -0.296107 0.383887 -0.873671 -0.298881 168 136 127
-0.221154 -0.664043 -0.288198 0.417707 -0.880934 -0.222433 174 143 134
0.0237299 0.00309593 -0.525096 0.692268 0.61896 -0.371016 118 20 21
-0.0179964 0.157243 -0.575919 0.882001 0.0839067 -0.463719 180 163 168
-0.0229135 -0.468148 -0.479013 0.950943 -0.256908 0.172357 176 148 140
-0.0720736 0.0614775 -0.67155 0.876802 -0.394117 -0.275485 171 146 150
-0.0269599 -0.441369 -0.633569 0.800292 -0.5853 -0.130216 130 101 95
-0.114415 -0.480264 -0.666127 0.32524 -0.793177 -0.514868 124 110 88
0.0292225 -0.35863 -0.747711 0.41243 -0.802401 -0.431339 166 138 130
-0.104151 -0.446774 -0.71592 0.535858 -0.739758 -0.406959 114 98 79
0.685144 0.6034 0.487876 0.884865 -0.243839 0.396933 160 66 73
0.518433 -0.132215 0.573418 0.85276 -0.369942 0.368706 203 176 168
0.598133 -0.10147 0.426833 0.955346 -0.150755 0.254141 193 160 149
0.666568 -0.288305 0.298194 0.8748 0.110473 0.471723 197 178 170
0.645095 0.0732399 0.111459 0.909989 0.0738372 -0.408005 185 148 134
0.605578 0.162279 0.0773007 0.781205 0.230454 -0.58018 182 146 133
0.487535 0.427696 0.0736665 0.16069 0.0627634 -0.985007 161 147 138
0.649228 -0.144329 0.067033 0.896601 0.426543 -0.119028 188 167 158
0.51204 -0.502691 0.020315 0.542255 -0.673456 -0.502411 176 167 166
0.493089 -0.0358383 -0.0856254 0.347648 0.264584 -0.89952 167 149 141
-0.123665 0.726833 -0.146846 0.459819 -0.809327 -0.365453 83 48 33
0.198345 0.00631235 -0.164465 0.344021 0.236206 -0.908767 93 10 12
-0.170927 -0.439467 -0.0976374 0.774153 0.0168205 0.632775 145 105 92
0.0415432 -0.114009 -0.247975 0.397443 -0.796696 -0.455318 121 45 49
0.140804 -0.23453 -0.371897 0.747378 0.522367 0.410558 183 143 128
-0.258193 -0.708244 -0.148986 0.378114 -0.858794 -0.345693 186 162 155
-0.267448 -0.728979 -0.241166 0.350179 -0.79425 -0.496531 180 156 149
0.003393 -0.449201 -0.477018 0.48992 -0.840162 0.232604 171 138 126
0.118884 -0.106194 -0.610632 0.915941 0.326934 -0.232737 182 154 147
-0.503892 -0.78466 -0.340043 0.372148 -0.792295 -0.483502 107 97 79
0.126923 -0.316832 -0.621996 0.884573 -0.22091 -0.410767 185 152 140
0.0793362 -0.365034 -0.634328 0.583782 -0.782403 -0.216899 176 146 138
-0.035272 -0.285805 -0.940539 0.313736 -0.78356 -0.536286 115 100 81
0.713599 0.472912 0.463433 0.999097 0.0424812 0.000240816 159 51 55
0.707038 0.793494 0.398492 0.484976 -0.376599 -0.789286 173 111 118
0.707538 0.391535 0.302344 0.901143 0.431538 -0.0414304 191 150 152
0.56254 0.0629468 -0.00552361 0.431697 -0.175774 -0.884727 162 126 111
0.643918 -0.357272 0.0186639 0.620572 -0.261118 -0.739398 178 159 151
0.514723 -0.0699876 -0.0828728 0.432357 0.309915 -0.846771 168 151 144
0.444094 -0.355817 -0.120571 0.181711 -0.541171 -0.821045 169 157 152
0.0688716 -0.141222 -0.221153 0.216625 -0.41101 -0.885519 125 43 45
-0.0280932 0.438743 -0.328541 0.604202 0.348273 -0.716691 171 139 129
0.0671897 -0.419144 -0.434468 0.944804 -0.182289 -0.272245 181 147 136
-0.145512 0.276731 -0.573988 0.931065 0.106626 -0.348924 140 96 85
0.119714 -0.108083 -0.622627 0.847402 0.514808 -0.129937 186 160 154
0.65854 -0.480024 0.17589 0.880562 -0.432527 -0.193725 81 49 44
0.692449 -0.255075 0.0997001 0.919456 0.282044 -0.273958 191 173 165
-0.0398457 0.425418 -0.375677 0.694031 0.0950021 -0.713649 168 137 127
0.163986 -0.142685 -0.51626 0.9164 0.210016 -0.340742 190 157 146
-0.4648 0.631806 -0.639802 0.661217 0.532947 -0.527977 96 82 68
0.547335 -0.24971 0.412553 0.770294 -0.45027 0.451557 202 184 181
0.61096 0.400448 0.149416 0.506402 0.200595 -0.83864 171 155 146
0.680813 -0.219009 0.0941341 0.795742 0.369282 -0.480027 186 165 155
0.536865 -0.336143 -0.0816254 0.560679 -0.403366 -0.723143 168 153 146
0.169035 0.0735627 -0.253803 0.488378 -0.0673867 -0.870027 144 24 27
-0.155279 -0.376352 -0.0628244 0.533323 -0.833601 0.143791 96 49 45
-0.0660436 0.129577 -0.682084 0.916223 0.125171 -0.380613 130 79 75
0.16852 -0.266975 -0.566899 0.835963 -0.34346 -0.42802 171 137 126
-0.27305 -0.65655 -0.448683 0.385303 -0.858564 -0.338245 89 74 61
