ply
format ascii 1.0
element vertex 46
property float x
property float y
property float z
property float nx
property float ny
property float nz
property uchar diffuse_red
property uchar diffuse_green
property uchar diffuse_blue
end_header
0.418228 -0.566604 0.402246 0.339363 -0.842867 0.417621 182 164 161
0.512299 -0.564278 0.249291 0.357633 -0.929775 0.0872721 66 37 33
0.399817 -0.609295 0.296632 0.360961 -0.922645 0.135774 178 164 161
0.453312 -0.589297 0.225715 0.198514 -0.971955 -0.126083 94 64 57
-0.134283 -0.37027 0.218053 0.00207643 -0.972537 0.23274 102 22 25
-0.1807 -0.403348 0.210245 0.241843 -0.951331 0.191 143 95 100
-0.0775049 -0.318418 0.0614311 -0.013677 -0.937046 -0.348936 153 114 121
-0.0305005 -0.295479 -0.0662632 0.304309 -0.831164 -0.465362 138 76 80
-0.272772 -0.522526 0.0197789 0.723331 -0.416956 0.550399 185 153 146
-0.07079 -0.359393 -0.278725 -0.21544 -0.720643 0.658983 171 129 115
-0.305235 -0.652963 -0.0581802 0.652699 -0.756237 -0.0457097 185 151 140
-0.303844 -0.646794 -0.0831532 0.746473 -0.653485 -0.125435 187 149 136
-0.277959 -0.683478 -0.319683 0.42422 -0.809647 0.405595 126 94 83
-0.420246 -0.763816 -0.199606 0.674682 -0.70529 -0.217643 169 150 146
-0.513003 -0.779108 -0.129252 0.433902 -0.89848 0.0668068 123 94 91
-0.42612 -0.720188 -0.285322 0.0249039 -0.967166 -0.252922 131 97 85
-0.156513 -0.482299 -0.683868 0.277643 -0.776883 -0.565125 120 103 84
-0.206225 -0.467613 -0.733751 0.306093 -0.751378 -0.584583 118 106 85
-0.413925 -0.61296 -0.52793 0.26599 -0.83647 -0.479131 113 99 78
-0.492415 -0.551972 -0.630672 0.15231 -0.73026 -0.665976 100 87 70
-0.526508 -0.546794 -0.641862 -0.034361 -0.744009 -0.667285 83 69 56
-0.71973 -0.810238 -0.319998 0.176806 -0.848916 -0.498077 113 99 78
0.535744 -0.519707 0.398963 0.707222 -0.613289 0.351729 90 53 49
0.530672 -0.565069 0.33036 0.414345 -0.907239 0.0723487 83 51 45
0.43879 -0.603489 0.353537 0.475145 -0.854698 0.209111 165 146 142
0.438269 -0.603431 0.277 0.82698 -0.558873 0.0613566 135 110 102
0.396765 -0.59602 0.163362 0.306143 -0.767076 -0.5638 182 170 168
0.25355 -0.543714 0.0753401 0.0702732 -0.642528 -0.763033 171 161 159
-0.107544 -0.375797 0.147126 0.0502105 -0.733249 0.678104 103 21 24
-0.283992 -0.490819 0.0320468 0.556172 -0.824807 0.101815 180 148 143
-0.800361 -0.00568325 0.385147 -0.335474 -0.936347 -0.103499 147 115 106
-0.479375 -0.711573 -0.133158 0.395202 -0.764159 0.50978 170 141 135
-0.384447 -0.719532 -0.295486 0.257982 -0.946082 -0.195892 146 123 118
-0.597387 -0.816759 -0.258928 0.181646 -0.861872 -0.473479 116 101 79
-0.473795 -0.537935 -0.647046 0.11322 -0.803356 -0.584638 106 92 73
0.576169 -0.00236478 0.677309 0.643022 -0.728507 0.236222 198 183 178
-0.281676 -0.366313 0.269223 0.167973 -0.749916 0.639853 152 32 36
-0.685542 0.240967 0.625415 0.102025 -0.883153 0.457855 85 44 35
-0.428677 -0.753571 -0.217332 0.293685 -0.911331 -0.288487 156 130 122
-0.386421 -0.522866 -0.653147 0.122167 -0.904978 -0.40754 116 104 82
-0.74674 -0.800697 -0.356499 0.146854 -0.861063 -0.486832 111 99 79
-0.292379 -0.482358 0.168694 0.394847 -0.852546 0.342434 181 143 152
0.616644 -0.0263408 0.616042 0.684018 -0.658835 0.313139 199 185 181
-0.426088 -0.757179 -0.172712 0.39519 -0.833468 0.386208 172 146 139
-0.55667 -0.558927 -0.62231 -0.0302134 -0.776065 -0.629929 88 76 61
-0.362879 -0.729189 -0.0989119 0.367981 -0.900181 0.232947 194 165 158
