ply
format ascii 1.0
element vertex 275
property float x
property float y
property float z
property float nx
property float ny
property float nz
property uchar diffuse_red
property uchar diffuse_green
property uchar diffuse_blue
end_header
0.473537 0.300512 0.841617 0.858906 -0.245526 0.449441 172 66 71
0.520813 0.299906 0.770253 0.831841 -0.421973 0.360528 155 38 42
0.588428 0.643798 0.611056 0.85148 -0.237642 0.467447 180 127 135
0.693767 0.629945 0.495773 0.929871 0.230201 0.286962 157 37 40
0.686965 0.783771 0.442887 0.934124 -0.353908 0.0464974 175 127 135
0.579165 0.483725 0.585435 0.877909 0.0164458 0.478546 195 170 176
0.694829 0.700994 0.419521 0.96009 0.270952 0.0693691 163 54 56
0.623487 0.36678 0.583837 0.886241 0.253676 0.38759 188 123 128
0.703639 0.71001 0.395026 0.945213 0.226596 -0.235004 164 59 62
0.692875 0.188615 0.553243 0.913142 -0.175345 0.368002 207 190 185
0.710031 0.541355 0.425894 0.958766 0.27455 0.0734136 182 115 117
0.725107 0.394793 0.436982 0.982001 -0.177775 0.0637954 182 113 115
0.744634 0.339952 0.441612 0.965827 0.0927256 -0.242031 166 36 38
0.70787 0.544185 0.357711 0.954395 -0.0758463 -0.288751 160 60 62
0.722829 0.405849 0.400784 0.99204 0.12583 0.00472213 166 63 64
0.669594 0.678658 0.322219 0.815053 -0.0989249 -0.570878 164 88 93
0.711218 0.429279 0.370599 0.89578 0.130496 -0.424909 179 133 135
0.711645 0.404685 0.344137 0.809685 0.46878 -0.353066 170 74 75
0.695834 0.451379 0.332026 0.902966 0.00449082 -0.429688 192 172 175
0.688249 0.515899 0.305453 0.778198 -0.0502847 -0.626002 141 20 22
0.721729 0.372928 0.32836 0.855993 0.505649 -0.10768 174 96 97
0.673366 0.508914 0.293577 0.785945 0.0477091 -0.616454 139 36 38
0.749624 0.306506 0.321959 0.995293 0.0889053 0.0385806 187 170 164
0.519282 -0.112444 0.581051 0.892251 -0.450772 0.0263454 212 185 178
0.626244 0.558589 0.251721 0.4559 0.107848 -0.883473 128 16 17
0.637761 0.488252 0.246744 0.724911 0.165223 -0.668735 168 143 144
0.494096 -0.21038 0.538289 0.597774 -0.798713 -0.0687257 172 144 137
0.547307 -0.15426 0.478983 0.927262 -0.339708 0.157431 185 154 144
0.641697 -0.00111062 0.385883 0.620978 -0.702268 -0.348145 202 172 163
0.644397 0.01253 0.361918 0.72931 -0.664456 -0.163111 201 168 158
0.675455 0.0742476 0.26368 0.929318 -0.320662 -0.183153 200 169 157
0.658612 -0.00728723 0.308669 0.844094 -0.477514 -0.243898 189 153 143
0.665193 0.174388 0.190858 0.949299 -0.00238291 -0.314365 166 133 118
0.610329 -0.192176 0.30576 0.87402 0.24195 0.421366 202 185 182
0.537252 -0.468082 0.433086 0.832147 -0.28206 0.477466 192 172 167
0.649313 -0.0593014 0.230753 0.897733 -0.279124 0.34083 181 148 137
0.651257 0.107709 0.135432 0.826438 0.0899462 -0.555797 172 130 111
0.658488 -0.409328 0.331416 0.863417 -0.375599 0.336802 189 170 166
0.65471 -0.0601246 0.195109 0.854983 -0.517386 0.0362864 192 159 149
0.633447 -0.0972856 0.154949 0.666696 -0.209439 -0.715299 195 164 151
0.654854 -0.063458 0.170871 0.860385 -0.509585 -0.00780329 189 153 141
0.669116 -0.413039 0.277051 0.848236 -0.506313 0.15538 90 53 46
0.707175 -0.339821 0.227717 0.829225 -0.555207 -0.0642744 193 176 171
0.593175 0.173246 0.0646462 0.780726 0.444449 -0.439241 179 146 135
0.677423 -0.406362 0.216651 0.91852 -0.37046 0.138125 80 47 41
0.680045 -0.39622 0.196726 0.949069 -0.251414 -0.189895 90 56 50
0.472599 -0.588133 0.342182 0.903799 -0.426011 -0.0407634 85 52 46
0.629451 -0.0919384 0.070929 0.90691 0.370291 -0.200994 195 172 164
0.575198 0.0867948 0.0102163 0.563252 0.31958 -0.761981 157 115 97
0.596725 -0.0116375 0.0159691 0.231238 -0.636716 -0.73561 161 121 102
0.511337 0.13691 -0.0239162 0.62572 0.196777 -0.75482 166 128 113
0.67834 -0.265798 0.0757922 0.900388 -0.00420084 -0.435068 180 160 150
-0.0371923 0.71249 -0.0140889 0.418291 -0.838561 -0.349068 60 30 20
0.656038 -0.414534 0.117068 0.705406 -0.377408 -0.599971 80 50 45
0.656656 -0.213055 0.030517 0.843539 -0.0126956 -0.536918 182 162 153
0.517993 0.0399767 -0.02328 0.478199 -0.0244023 -0.877912 150 115 97
-0.0520213 0.733943 -0.0855923 0.314861 -0.836005 -0.449397 91 54 37
0.488429 0.083994 -0.0577919 0.703407 0.085995 -0.705565 168 139 126
0.119623 0.425091 -0.0543836 0.89792 0.439559 -0.0229804 162 140 145
0.631632 -0.409488 0.057632 0.52368 -0.742293 -0.418044 178 164 159
0.606971 -0.205472 -0.00919565 0.670307 0.195886 -0.715764 113 84 73
0.513149 -0.0187248 -0.0631508 0.540044 0.389978 -0.745836 174 156 150
-0.129079 0.715679 -0.124935 0.436657 -0.791426 -0.427755 67 36 24
0.574575 -0.17843 -0.0476421 0.889467 0.131735 -0.4376 186 169 164
0.189155 0.315182 -0.0925805 0.963106 0.269073 0.00506148 111 29 31
0.610542 -0.262597 -0.0261996 0.852799 0.160448 -0.496982 182 166 160
0.561391 -0.208482 -0.0562184 0.646021 0.121342 -0.753613 139 113 105
-0.157113 0.716806 -0.167452 0.500403 -0.819001 -0.280774 86 49 32
0.197255 0.275575 -0.148865 0.971729 -0.150263 -0.182106 176 155 159
0.565199 -0.273773 -0.0762684 0.663965 0.116893 -0.738571 178 162 156
0.243582 0.0734472 -0.133426 0.900815 -0.20417 -0.383206 148 122 119
0.142426 0.325316 -0.197479 0.668999 0.371775 -0.643602 178 161 166
0.240316 0.0463486 -0.123991 0.950762 -0.0603344 -0.303995 146 117 114
0.184099 0.227911 -0.204816 0.640364 0.251161 -0.725845 114 13 16
0.148189 0.289156 -0.223002 0.676703 0.311067 -0.667316 176 156 160
0.438657 -0.201725 -0.150332 0.759181 -0.202512 -0.618574 170 155 148
-0.261234 -0.469971 0.129488 0.655496 -0.654608 -0.376581 156 95 101
0.154832 -0.0613703 -0.185609 0.544673 0.0505136 -0.837126 157 133 131
0.118987 -0.172119 -0.161757 0.584986 -0.736373 -0.33992 125 24 26
0.0474523 -0.210291 -0.158793 0.311363 -0.842549 -0.439505 151 132 139
0.0789141 0.101977 -0.325739 0.96473 0.199016 -0.172301 165 71 76
-0.0988877 -0.349695 -0.0769366 0.783106 -0.604809 -0.144743 95 34 33
-0.0306265 -0.232353 -0.177295 0.691483 -0.704622 0.159245 101 26 25
0.0544403 -0.0903733 -0.270586 0.479185 -0.766415 -0.427774 114 23 27
0.0784554 0.0553718 -0.337205 0.975188 -0.220685 -0.0175083 154 31 36
0.0768853 -0.0662512 -0.317769 0.979615 0.200876 -0.00206269 158 109 118
0.0790866 0.00381768 -0.370652 0.990121 0.117157 0.0770282 165 26 30
-0.180963 0.483253 -0.518123 0.873743 0.428008 -0.231049 120 70 58
0.0773057 -0.0729725 -0.383406 0.85747 0.0203382 0.514131 154 71 71
0.0700922 0.0288814 -0.42333 0.926927 0.163886 -0.337563 192 174 179
0.0870335 -0.152903 -0.371789 0.82914 0.0197665 0.558692 189 156 149
-0.166985 0.423093 -0.561388 0.904273 0.318451 -0.284392 105 58 47
-0.130885 -0.423486 -0.206416 0.96094 -0.212575 -0.177217 147 105 91
-0.136094 -0.526837 -0.364563 0.579773 -0.736314 -0.348863 146 104 91
-0.0875229 0.0130478 -0.629534 0.926322 -0.225509 -0.301784 113 26 28
-0.189818 -0.663702 -0.326015 0.689142 -0.716704 -0.106856 166 137 129
-0.326104 -0.719794 -0.297607 0.395671 -0.85956 -0.323421 136 114 105
-0.285311 -0.705218 -0.33406 0.596027 -0.702627 -0.388673 103 72 60
-0.427633 -0.781555 -0.295098 0.410809 -0.808439 -0.421502 118 103 82
-0.0649805 0.0247434 -0.750232 0.752181 0.0305822 0.658247 112 45 35
-0.330054 -0.698897 -0.395381 0.379824 -0.851073 -0.362502 121 107 85
-0.428976 -0.747381 -0.35269 0.371413 -0.828471 -0.419152 118 106 84
-0.153993 -0.582244 -0.509385 0.408157 -0.824934 -0.391011 122 107 85
-0.043556 -0.464767 -0.608169 0.854793 -0.518961 0.00296811 109 75 65
0.0156828 -0.402135 -0.666586 0.579138 -0.801577 -0.14857 163 140 134
-0.00503068 -0.0677231 -0.846265 0.698721 0.450663 -0.555601 112 64 50
-0.0335401 -0.426215 -0.674911 0.432328 -0.824536 -0.365009 121 92 86
-0.376213 -0.657422 -0.500626 0.290738 -0.79847 -0.527179 94 80 65
-0.19755 -0.539601 -0.621955 0.31574 -0.701259 -0.639174 118 108 88
0.0689772 -0.279008 -0.782048 0.569169 -0.467731 -0.67622 166 143 135
0.0581008 -0.316808 -0.772304 0.811396 -0.340861 -0.474816 165 140 133
-0.00815101 -0.351772 -0.770849 0.63915 -0.600044 -0.481075 154 133 127
-0.0875462 -0.432017 -0.723912 0.618578 -0.732162 -0.28513 99 75 61
-0.0224931 -0.149396 -0.920788 0.623534 0.269696 -0.733805 97 57 47
-0.163127 -0.446618 -0.759266 0.295664 -0.738132 -0.606419 118 107 86
-0.0154895 -0.305281 -0.856296 0.729153 0.229615 0.64468 114 75 57
-0.034662 -0.170123 -0.950692 0.655786 0.398829 -0.641 92 57 47
0.0166547 -0.28896 -0.897659 0.625316 -0.740347 -0.246714 132 105 83
0.524036 0.25194 0.753034 0.856419 -0.309168 0.413477 193 164 170
0.55985 0.257412 0.696898 0.864392 -0.211016 0.456398 195 162 165
0.604139 0.347465 0.635653 0.935786 0.234865 0.262948 192 139 145
0.596669 0.0420472 0.733302 0.924909 -0.378556 -0.0351827 211 199 198
0.698543 0.722356 0.378758 0.966933 -0.0076017 -0.254915 176 100 103
0.727087 0.225931 0.505298 0.963574 -0.0579629 0.261085 197 181 175
0.720039 0.548886 0.370317 0.959533 -0.26611 -0.0920989 178 108 111
0.718097 0.466127 0.414758 0.885442 -0.395685 0.243773 195 161 166
0.741758 0.334842 0.364091 0.977491 0.0135684 -0.210543 201 169 169
0.628635 -0.00366265 0.551325 0.474183 -0.793035 0.38242 197 181 175
0.627374 0.646536 0.266293 0.621208 0.0779091 -0.779763 172 149 152
0.53918 -0.0828848 0.558795 0.937902 -0.341612 0.0603326 199 170 162
0.70787 0.380428 0.281379 0.994769 0.0851892 0.056368 187 168 166
0.62341 -0.0813911 0.352988 0.89312 -0.446114 -0.057618 184 157 149
0.668419 -0.00298083 0.285515 0.888778 -0.458287 -0.00688012 184 147 135
0.547335 -0.24971 0.412553 0.770294 -0.45027 0.451557 202 184 181
0.666163 -0.0177374 0.250773 0.817679 -0.501561 0.282555 177 140 126
0.674347 0.116258 0.19092 0.898086 0.424313 -0.11576 190 157 145
0.621635 -0.109964 0.301096 0.902475 -0.299661 0.309422 33 29 30
0.645749 -0.054952 0.254906 0.901248 -0.404247 0.156002 192 162 153
0.600496 -0.192076 0.331384 0.875792 0.243662 0.416675 202 183 179
0.62245 0.189521 0.121463 0.740464 0.371181 -0.560302 171 133 118
0.524087 0.388378 0.0851331 0.497889 0.126625 -0.857946 158 142 132
0.669146 -0.0397365 0.171413 0.99334 0.0928706 0.0681935 189 155 144
0.668819 -0.189013 0.188762 0.814895 0.561866 0.142311 195 175 164
0.649332 0.0546113 0.11463 0.890788 0.12845 -0.435888 181 143 130
0.0701894 0.714224 0.102663 0.393651 -0.798628 -0.455227 59 31 20
0.635298 -0.120161 0.12972 0.992403 0.0901149 0.0837552 192 166 155
0.629417 -0.00559072 0.0522109 0.849043 0.486872 -0.205137 187 152 139
0.592475 0.109939 0.0234747 0.77386 0.341379 -0.533481 160 119 101
0.529145 0.195807 0.0191883 0.755422 0.316918 -0.573497 160 119 102
0.029158 0.73418 0.00898767 0.506905 -0.826022 -0.246445 86 49 32
0.622947 -0.0850927 0.0517122 0.864805 0.49581 -0.0792732 192 169 160
0.684096 -0.248336 0.0830856 0.853946 0.18908 -0.484793 183 164 154
0.438269 -0.603431 0.277 0.82698 -0.558873 0.0613566 135 110 102
0.616115 -0.467594 0.100286 0.335943 -0.459922 -0.821957 70 40 34
0.541274 -0.534887 0.115433 0.488982 -0.560564 -0.66833 75 46 39
-0.123635 0.761849 -0.145529 0.570475 -0.432396 -0.698278 79 44 34
0.492882 -0.0177082 -0.0814313 0.506659 0.31717 -0.801686 166 149 141
0.136371 0.393098 -0.120966 0.825951 0.442208 -0.349653 137 24 28
0.548799 -0.215679 -0.067228 0.638395 0.182046 -0.74787 110 83 74
0.183577 0.315064 -0.141695 0.90548 0.304451 -0.295662 166 97 101
0.225386 0.161611 -0.13515 0.656594 0.114399 -0.745518 110 14 17
0.180041 0.248528 -0.199942 0.666954 0.0239588 -0.744713 130 29 33
0.204871 0.142122 -0.209779 0.963383 0.0324513 -0.266156 190 172 177
0.0192201 0.321408 -0.287248 0.848304 -0.239305 -0.472348 157 120 110
0.126256 0.172755 -0.270837 0.616083 0.17152 -0.76878 161 140 144
-0.103158 -0.381553 0.00466803 0.670132 -0.704888 -0.232499 100 22 26
0.156787 0.0852748 -0.261242 0.443292 -0.0461222 -0.89519 127 17 20
0.00762026 -0.252998 -0.115571 0.425877 -0.735715 -0.526642 111 16 17
0.131818 -0.00646074 -0.264578 0.644882 -0.346401 -0.681273 176 157 161
-0.300232 -0.509987 0.078615 0.778705 -0.376874 0.50158 131 31 32
0.00923253 -0.198883 -0.184171 0.348244 -0.636786 -0.687917 142 115 121
-0.232759 -0.485506 -0.00919549 0.585409 -0.615762 0.527384 182 148 139
0.0607293 0.0118362 -0.34177 0.953674 0.0437797 0.297638 151 29 31
0.017921 0.203035 -0.414167 0.857892 0.394608 -0.329098 188 173 179
0.0804355 0.0385367 -0.398493 0.979993 -0.0329967 -0.196282 187 143 150
0.0270408 -0.237442 -0.288551 0.737816 -0.0558645 0.672686 159 126 118
-0.0126451 0.198457 -0.502893 0.821734 0.472399 -0.318735 157 23 26
-0.1345 0.323455 -0.50076 0.825714 0.528288 -0.19776 174 138 128
0.0377517 0.0371693 -0.475347 0.645807 0.482004 -0.59212 172 102 106
-0.0287754 -0.337989 -0.294744 0.606923 -0.603804 0.516783 168 132 119
-0.131672 -0.529765 -0.240522 0.783707 -0.549345 -0.289868 171 136 125
0.00382009 0.0200608 -0.527077 0.610183 0.296974 -0.734495 143 32 35
-0.0352792 -0.396556 -0.331683 0.450137 -0.891382 -0.0530508 179 147 136
-0.275464 -0.716818 -0.163221 0.646071 -0.753325 -0.122858 186 162 156
-0.158963 -0.585836 -0.236582 0.79877 -0.466562 -0.37985 171 136 123
-0.0463028 0.0839556 -0.595686 0.835785 -0.318939 -0.446923 123 18 21
-0.0783992 -0.448366 -0.379049 0.636716 -0.76276 0.113085 175 140 129
-0.064555 0.150912 -0.656376 0.919818 0.292496 -0.261497 127 22 22
-0.458972 -0.769085 -0.19751 0.388958 -0.919043 -0.0638085 154 126 121
-0.0941481 0.00801622 -0.727845 0.55477 -0.588434 0.588198 119 20 21
-0.457533 -0.778369 -0.312825 0.392143 -0.832234 -0.391931 104 92 76
-0.278427 -0.669087 -0.427427 0.400887 -0.871402 -0.28275 97 82 68
-0.463482 -0.709216 -0.462424 0.324026 -0.497276 -0.804813 112 101 79
-0.114415 -0.480264 -0.666127 0.32524 -0.793177 -0.514868 124 110 88
-0.271349 -0.509146 -0.691418 0.301805 -0.772804 -0.558291 106 96 79
0.0169789 -0.226436 -0.875712 0.945892 -0.0729007 0.316185 15 10 9
-0.140031 -0.356356 -0.882491 0.297999 -0.800927 -0.519337 103 91 72
-0.0401351 -0.183808 -0.958091 0.764981 0.269379 -0.585011 79 52 42
0.499602 0.325616 0.814969 0.83848 -0.0157602 0.544704 183 103 107
0.473832 0.251222 0.825516 0.909403 0.00401403 0.415897 166 72 78
0.580941 0.323262 0.695197 0.916908 0.0350804 0.397555 178 96 103
0.584255 0.423294 0.636702 0.920509 0.299066 0.251444 178 76 80
0.688251 0.468447 0.512101 0.842597 0.0488271 0.536326 183 109 113
0.623765 0.00801266 0.577929 0.686322 -0.724654 0.0619622 201 187 182
0.649706 0.514617 0.268114 0.746012 -0.0259985 -0.665425 160 95 98
-0.102187 0.731684 -0.133951 0.475143 -0.805373 -0.35442 79 44 30
0.520549 -0.211414 -0.0860578 0.490334 0.0473065 -0.870249 139 118 111
0.404248 -0.195153 -0.166105 0.413641 -0.162967 -0.895736 160 142 133
0.185752 0.00227561 -0.177 0.632957 -0.166786 -0.756007 96 10 13
-0.0103071 0.271713 -0.334512 0.951216 -0.0164313 0.30809 94 45 36
0.0563674 0.121268 -0.356484 0.861595 0.464725 -0.204168 134 18 20
-0.0207826 -0.246823 -0.222144 0.994719 0.00843753 0.102291 96 50 44
-0.111888 0.328017 -0.490373 0.90087 0.370924 -0.225499 171 135 126
0.00413703 0.142467 -0.472359 0.908032 -0.41887 0.005128 121 11 15
-0.0179964 0.157243 -0.575919 0.882001 0.0839067 -0.463719 180 163 168
-0.0110244 0.0412983 -0.535139 0.648782 0.473448 -0.59576 149 31 32
-0.420246 -0.763816 -0.199606 0.674682 -0.70529 -0.217643 169 150 146
-0.224597 -0.655003 -0.289912 0.382885 -0.869892 -0.310943 172 142 133
-0.0720736 0.0614775 -0.67155 0.876802 -0.394117 -0.275485 171 146 150
-0.0609969 -0.475759 -0.445322 0.649845 -0.756863 -0.0697147 171 137 128
-0.135368 -0.56553 -0.426509 0.894524 -0.00947086 -0.44692 110 72 60
0.133235 -0.309592 -0.614879 0.8622 -0.418587 -0.2853 180 146 134
-0.0863829 -0.529184 -0.576027 0.29976 -0.810964 -0.502475 124 106 86
0.0292225 -0.35863 -0.747711 0.41243 -0.802401 -0.431339 166 138 130
-0.26098 -0.543286 -0.632619 0.31358 -0.800722 -0.510405 108 97 80
-0.129666 -0.453863 -0.725317 0.29453 -0.804716 -0.515445 88 74 62
-0.0115606 -0.285403 -0.92884 0.334638 -0.83443 -0.437886 114 96 79
0.495307 0.564385 0.694462 0.862628 -0.00245831 0.505833 198 156 161
0.684199 0.611099 0.511581 0.869704 0.117255 0.479442 154 34 38
0.721585 0.24973 0.494322 0.944698 0.153233 0.289942 194 176 172
0.733579 0.399269 0.455052 0.994969 0.0809903 0.0589757 197 158 163
0.743458 0.193336 0.449768 0.981491 -0.18158 0.0608635 193 176 166
0.749662 0.340467 0.379306 0.943393 0.319568 0.0888027 167 82 82
0.703933 0.39512 0.272857 0.958913 0.277004 -0.061281 192 172 171
0.126225 0.756474 0.0773519 0.467595 -0.813348 -0.34615 92 53 35
0.696844 -0.259174 0.16168 0.944718 0.302696 0.126032 194 174 167
0.508195 0.256267 0.0288025 0.682845 0.409059 -0.605306 162 127 114
0.464577 0.225524 -0.021362 0.564046 0.363904 -0.741233 160 125 111
0.531243 -0.0871549 -0.0741985 0.609356 0.288876 -0.738401 169 152 143
0.592235 -0.317804 -0.0403713 0.714303 -0.299738 -0.632399 176 159 152
0.458707 -0.526558 0.0141307 0.300617 -0.753445 -0.584766 173 163 160
0.18671 0.119852 -0.242695 0.681264 0.0642219 -0.729215 171 132 137
-0.255119 0.714178 -0.328065 0.966167 0.165813 0.197557 57 29 22
-0.284697 -0.462012 0.0929594 0.928525 -0.371109 -0.0109089 113 15 17
0.0891641 0.0836432 -0.314514 0.993957 0.101183 -0.0425697 163 105 109
-0.0946962 0.320808 -0.45469 0.918804 0.0186499 -0.394274 170 134 125
-0.182626 -0.552072 -0.039999 0.83082 0.0905148 0.549131 175 143 133
-0.131571 -0.481665 -0.20161 0.704535 0.709665 0.00253824 159 120 107
-0.329128 -0.745091 -0.206961 0.322136 -0.931123 -0.170993 179 155 147
-0.503892 -0.78466 -0.340043 0.372148 -0.792295 -0.483502 107 97 79
-0.15352 -0.460644 -0.73137 0.288582 -0.812596 -0.506367 95 81 67
0.688264 0.670548 0.462315 0.961983 -0.0149649 0.272699 157 52 54
0.736531 0.124803 0.402303 0.945404 -0.325851 0.00569233 198 183 176
0.597048 0.435346 0.141447 0.686342 0.0390407 -0.72623 174 157 149
0.489258 -0.497221 -0.00227418 0.320701 -0.651544 -0.687488 177 168 166
-0.0333764 0.416061 -0.363382 0.750896 0.203779 -0.628195 167 136 126
-0.271168 -0.453726 0.0767366 0.854324 -0.468026 0.226013 97 16 18
-0.233457 -0.633352 -0.081187 0.649567 -0.759381 -0.0374585 181 148 137
-0.243496 -0.703748 -0.218078 0.620592 -0.742849 -0.251078 179 152 141
0.0671897 -0.419144 -0.434468 0.944804 -0.182289 -0.272245 181 147 136
0.737562 0.165175 0.480601 0.997868 -0.0468189 -0.0454732 199 183 176
0.680813 -0.219009 0.0941341 0.795742 0.369282 -0.480027 186 165 155
-0.0578295 0.687769 0.0323491 0.516216 -0.817054 -0.256792 70 36 23
0.641968 -0.509815 0.184859 0.773545 -0.632429 -0.0407736 74 43 37
0.510337 0.116985 -0.0277289 0.587 0.0370542 -0.808738 162 125 109
0.508996 -0.421199 -0.0480564 0.447591 -0.548401 -0.706342 170 158 153
-0.226181 -0.669438 -0.1638 0.645069 -0.758362 -0.0936617 180 152 142
-0.0627664 0.109935 -0.667834 0.806363 0.104812 -0.582059 159 114 114
0.682832 0.280614 0.216563 0.507429 -0.42368 -0.75034 175 157 146
-0.0706161 0.69569 -0.0364289 0.456414 -0.826229 -0.3302 67 35 23
0.589043 -0.209616 -0.0266765 0.7063 0.330854 -0.625841 126 98 88
0.134614 0.0608693 -0.274314 0.43525 0.0165094 -0.900158 115 14 16
-0.0631446 0.211303 -0.638693 0.790096 0.612983 -0.000371035 122 63 54
0.163107 -0.283942 -0.5659 0.752925 -0.568801 -0.331011 177 144 132
0.620443 -0.0947131 0.0339573 0.827074 0.529492 -0.188649 185 163 153
