ply
format ascii 1.0
element vertex 341
property float x
property float y
property float z
property float nx
property float ny
property float nz
property uchar diffuse_red
property uchar diffuse_green
property uchar diffuse_blue
end_header
0.725107 0.394793 0.436982 0.982001 -0.177775 0.0637954 182 113 115
0.728694 0.412375 0.42249 0.999817 0.0121486 -0.0147894 190 125 127
0.719259 0.516726 0.348349 0.909966 -0.299732 -0.28657 146 21 24
0.741828 0.324616 0.347907 0.954751 0.230259 -0.188232 192 171 167
0.690097 0.673635 0.346559 0.82384 -0.258746 -0.504318 151 44 47
0.68147 0.727122 0.349735 0.877776 -0.156063 -0.452938 153 57 59
0.678404 0.685884 0.341688 0.852776 -0.0472403 -0.520138 151 39 43
0.711645 0.404685 0.344137 0.809685 0.46878 -0.353066 170 74 75
0.67735 0.645374 0.334295 0.890044 -0.12941 -0.437121 186 163 167
0.699362 0.471132 0.332759 0.894686 -0.206003 -0.396357 188 159 163
0.685984 0.0310111 0.396726 0.466586 -0.787159 -0.403335 187 170 165
0.668438 0.657922 0.319697 0.834727 0.0324019 -0.549709 185 156 161
0.656618 0.00645864 0.399047 0.609838 -0.715537 -0.340739 178 146 135
0.705133 0.372246 0.300899 0.900992 -0.062708 -0.42928 196 176 173
0.528556 -0.167674 0.525249 0.986878 -0.129418 0.0965524 174 141 131
0.622116 0.675281 0.266469 0.513667 0.380854 -0.768827 159 135 138
0.675455 0.0742476 0.26368 0.929318 -0.320662 -0.183153 200 169 157
0.67904 0.127975 0.246087 0.959696 0.0330028 -0.279094 190 162 152
0.667554 0.390382 0.204261 0.647313 0.176947 -0.741401 190 175 169
0.650505 -0.437546 0.32041 0.86305 -0.375881 0.33743 107 70 61
0.645749 -0.054952 0.254906 0.901248 -0.404247 0.156002 192 162 153
0.669116 -0.413039 0.277051 0.848236 -0.506313 0.15538 90 53 46
0.666552 0.136857 0.190929 0.908302 0.387066 -0.158641 192 160 148
0.680141 -0.400958 0.239384 0.943056 -0.332634 0.000291407 88 53 46
0.701168 -0.355511 0.208043 0.664804 -0.721926 -0.191984 182 162 157
0.631082 -0.0828125 0.229545 0.921478 -0.0821756 0.379639 186 154 144
0.59164 0.50918 0.164667 0.555064 0.512222 -0.655388 184 169 169
0.647186 -0.483445 0.235394 0.398566 -0.494218 -0.772588 84 52 47
0.519417 0.587947 0.167851 0.112682 -0.345408 -0.931664 165 150 152
0.60238 0.255168 0.140723 0.789018 0.138207 -0.598623 154 126 112
0.619875 -0.526486 0.2143 0.986188 0.163979 -0.0233475 70 40 35
0.691091 -0.326341 0.128826 0.688306 -0.602145 -0.404543 188 171 167
0.56612 0.464939 0.114992 0.58311 0.107399 -0.805263 174 160 153
0.579312 -0.565783 0.154745 0.274094 -0.863163 -0.424055 74 44 38
0.616115 -0.467594 0.100286 0.335943 -0.459922 -0.821957 70 40 34
0.626189 -0.416043 0.0804054 0.742312 -0.594535 -0.309031 183 172 170
0.505218 0.271574 0.0344999 0.722153 0.304789 -0.620965 160 124 109
0.651475 -0.305701 0.0205522 0.770243 0.0304455 -0.637024 187 170 164
0.463717 0.312456 0.0235879 0.563462 0.593329 -0.574867 165 136 127
0.562671 -0.0061157 -0.0153931 0.455255 0.187301 -0.870437 155 120 104
0.565771 -0.0555884 -0.02932 0.679694 0.368719 -0.634085 175 156 148
0.533766 0.084759 -0.0202372 0.50738 0.18274 -0.842124 160 126 112
0.451118 0.292466 0.000207758 0.47629 0.549281 -0.686614 152 117 103
0.134 0.622803 0.154492 0.302309 -0.744356 -0.595435 48 24 16
0.497236 0.145502 -0.0310453 0.62054 0.140071 -0.771563 167 133 119
0.504249 0.0519524 -0.0294886 0.443536 -0.285416 -0.849596 150 115 96
0.483587 0.14064 -0.0430114 0.658061 0.150134 -0.737845 154 116 100
0.419264 -0.579798 0.0715756 0.303602 -0.740178 -0.599968 147 133 128
0.427055 -0.545896 0.049118 0.331451 -0.516342 -0.78964 174 167 165
0.555382 -0.252223 -0.0796614 0.502205 0.473598 -0.723529 169 153 146
0.184557 0.501055 0.0465726 0.912081 0.341918 -0.226275 57 28 22
0.527377 -0.191389 -0.0864177 0.526531 -0.0289063 -0.849665 165 149 143
0.377947 -0.555668 0.052481 0.140934 -0.27327 -0.951557 143 134 132
0.283454 0.138678 -0.102055 0.3945 0.059534 -0.916965 138 89 81
0.430528 -0.218312 -0.14718 0.526507 -0.608494 -0.593737 166 151 145
0.426893 -0.285562 -0.133497 0.210215 0.114575 -0.970918 162 146 138
0.42164 -0.234433 -0.143113 0.427536 -0.610118 -0.667061 144 124 116
-0.0577255 0.565719 -0.019072 0.893356 0.24361 -0.377582 47 18 14
0.331993 -0.0985703 -0.155513 0.427333 0.613572 -0.664014 164 144 137
0.228343 0.109603 -0.143554 0.559279 0.113448 -0.821181 144 98 99
-0.0639452 0.565528 -0.0447643 0.964788 0.257787 0.0522492 45 18 14
0.214105 0.173883 -0.14437 0.943553 -0.0613533 -0.325487 100 12 15
0.254049 -0.0986858 -0.144913 0.206761 0.137972 -0.968614 144 114 108
0.0977393 0.41811 -0.160645 0.66031 0.502075 -0.55849 136 22 25
0.140052 -0.201425 -0.120159 0.061112 -0.497582 -0.865261 140 102 100
0.178027 0.0357391 -0.189276 0.921477 -0.386816 0.0353974 126 18 21
0.190126 0.0694344 -0.228772 0.854575 -0.353482 -0.380462 154 29 32
-0.0317106 0.484432 -0.199855 0.582036 0.600949 -0.547809 173 141 133
0.167984 0.0154185 -0.221511 0.840431 -0.428522 -0.331729 151 38 40
0.119171 -0.141785 -0.193491 0.721935 -0.311805 -0.617728 116 14 16
-0.0736469 0.55207 -0.223306 0.924345 0.155862 -0.34827 73 47 41
-0.219127 -0.425617 0.0282524 0.953361 -0.16126 0.255144 83 26 26
-0.173986 -0.387987 -0.0499966 0.558149 -0.824701 0.0913094 104 60 57
-0.0988877 -0.349695 -0.0769366 0.783106 -0.604809 -0.144743 95 34 33
0.143647 0.138055 -0.269941 0.310462 0.155092 -0.937848 162 138 142
-0.0524571 -0.29253 -0.100421 0.743013 -0.429744 -0.513081 134 92 94
-0.247658 -0.473748 0.0202493 0.73719 -0.5143 0.43823 171 137 134
-0.0955622 0.576428 -0.272876 0.568442 0.279881 -0.773654 53 30 23
0.0695198 -0.109517 -0.235978 0.435071 -0.616093 -0.656615 106 14 17
-0.190247 -0.45505 -0.0491537 0.964621 -0.0627086 0.256073 166 133 126
0.0105702 0.298452 -0.274685 0.713129 0.338567 -0.613856 148 109 100
-0.0306265 -0.232353 -0.177295 0.691483 -0.704622 0.159245 101 26 25
0.017212 -0.149925 -0.217076 0.097831 -0.504178 -0.858041 136 105 109
0.106983 -0.164824 -0.185315 0.582055 -0.738964 -0.339328 119 17 18
0.0730532 0.154743 -0.304577 0.75056 0.175422 -0.637092 158 113 116
0.0752819 0.0440199 -0.316801 0.93712 -0.184444 -0.296291 157 86 89
0.0227568 -0.125318 -0.260741 0.936567 -0.348608 0.0362558 126 91 96
-0.142219 0.597126 -0.313786 0.84675 0.406595 -0.343066 48 25 18
-0.0113759 0.387022 -0.344852 0.742185 -0.0840237 -0.664907 177 144 133
0.0767197 -0.0128073 -0.355532 0.97728 0.117135 0.176641 169 31 34
0.0870335 -0.152903 -0.371789 0.82914 0.0197665 0.558692 189 156 149
-0.0663973 0.306864 -0.413201 0.785097 -0.0279953 -0.61874 155 118 110
0.115302 -0.0782378 -0.431822 0.934953 0.00675376 0.354706 190 156 151
-0.226551 0.641232 -0.401831 0.969134 0.2361 0.0709661 118 67 53
-0.0472392 -0.402242 -0.3069 0.820459 -0.551467 -0.150768 170 139 130
0.00697542 0.205961 -0.447842 0.79163 0.553413 -0.258951 186 151 158
0.0473898 0.0465446 -0.45556 0.829165 0.512271 -0.22375 186 153 159
-0.155752 0.464223 -0.464657 0.872645 0.428828 -0.233659 158 131 124
0.0469798 0.000795671 -0.493955 0.813674 0.391645 -0.429592 161 101 102
0.00762566 0.118494 -0.498714 0.999051 0.0434279 -0.0034109 115 12 16
-0.0126451 0.198457 -0.502893 0.821734 0.472399 -0.318735 157 23 26
0.0162786 0.0497927 -0.497208 0.526162 0.558643 -0.641149 150 22 24
-0.287071 0.643426 -0.491147 0.605268 0.544233 -0.580914 88 68 57
-0.209796 0.471272 -0.587504 0.591427 0.552571 -0.587266 109 88 69
-0.450406 -0.797292 -0.282803 0.388471 -0.824587 -0.411274 117 104 85
0.140185 -0.300267 -0.600537 0.904547 -0.405867 -0.130642 185 155 145
0.16791 -0.189147 -0.634284 0.819571 -0.0776717 -0.567689 182 154 146
-0.0366737 0.130772 -0.625903 0.797025 -0.010215 -0.603861 141 16 19
-0.330054 -0.698897 -0.395381 0.379824 -0.851073 -0.362502 121 107 85
-0.123155 -0.575061 -0.511188 0.343501 -0.828185 -0.442851 126 107 84
0.0177303 -0.425382 -0.60989 0.678968 -0.660671 -0.320184 167 142 135
0.11795 -0.233059 -0.679793 0.805994 -0.114548 -0.580735 181 151 141
-0.0294773 -0.447332 -0.612957 0.762496 -0.629228 -0.150569 132 101 94
-0.576313 -0.745514 -0.416289 0.427663 -0.811536 -0.398139 110 100 79
-0.0141803 -0.0854056 -0.751076 0.719762 0.609157 -0.332971 120 75 68
-0.492848 -0.693746 -0.495047 0.26279 -0.480178 -0.836882 117 108 91
-0.0217352 -0.391414 -0.717699 0.612247 -0.756605 -0.229572 162 141 137
0.0532585 -0.179622 -0.787132 0.41813 0.327864 -0.847155 153 120 108
-0.0464508 -0.0708422 -0.777291 0.749863 0.652342 -0.110247 100 56 42
0.0701567 -0.247576 -0.794607 0.507936 -0.0158012 -0.86125 151 121 111
-0.533806 -0.670173 -0.530747 0.341058 -0.783948 -0.518752 87 78 64
-0.0875462 -0.432017 -0.723912 0.618578 -0.732162 -0.28513 99 75 61
-0.00988611 -0.345328 -0.790785 0.686434 -0.610067 -0.395761 128 107 103
0.0187928 -0.286859 -0.819597 0.233799 -0.273679 -0.932972 117 81 71
-0.197911 0.125151 -0.839045 0.786607 0.292202 -0.543937 114 97 78
-0.012593 -0.326723 -0.804965 0.698573 -0.448715 -0.557361 73 44 39
-0.206225 -0.467613 -0.733751 0.306093 -0.751378 -0.584583 118 106 85
-0.175273 0.0755845 -0.863906 0.534051 0.566056 -0.62799 114 97 77
0.0171365 -0.164435 -0.874002 0.990837 0.116312 0.0686484 133 86 70
-0.258004 0.155033 -0.867672 0.674573 0.391644 -0.625753 106 92 76
-0.0243917 -0.3337 -0.857341 0.30416 -0.849464 -0.431159 124 107 83
0.000364007 -0.148447 -0.900366 0.550183 0.388185 -0.739331 101 57 46
0.0166547 -0.28896 -0.897659 0.625316 -0.740347 -0.246714 132 105 83
-0.113256 -0.366426 -0.854724 0.281814 -0.780292 -0.558323 85 73 60
-0.00225015 -0.228868 -0.952992 0.409143 0.25915 -0.874896 95 58 46
-0.110898 -0.322438 -0.919718 0.292204 -0.808892 -0.510206 115 103 82
-0.127423 -0.309474 -0.940269 0.285723 -0.800136 -0.527395 103 90 74
-0.193655 -0.0732497 -0.990035 0.605608 0.539397 -0.585056 107 91 73
0.695489 0.642529 0.408544 0.996287 0.0566744 0.0648121 157 85 90
0.611969 -0.0243998 0.493995 0.642499 -0.761436 0.086084 168 140 131
0.53918 -0.0828848 0.558795 0.937902 -0.341612 0.0603326 199 170 162
0.690368 0.594581 0.336473 0.778553 0.385093 -0.495537 182 162 167
0.713649 0.389661 0.32448 0.897934 0.435803 -0.0615637 164 67 69
0.674689 0.0153267 0.403813 0.312638 -0.833766 -0.455074 182 160 152
0.669594 0.678658 0.322219 0.815053 -0.0989249 -0.570878 164 88 93
0.534412 -0.142785 0.53783 0.880287 -0.326684 0.344051 184 148 136
0.636038 -0.00569019 0.408663 0.399379 -0.841668 -0.363444 190 158 148
0.547307 -0.15426 0.478983 0.927262 -0.339708 0.157431 185 154 144
0.703933 0.39512 0.272857 0.958913 0.277004 -0.061281 192 172 171
0.688376 0.0886631 0.307688 0.754605 -0.619659 -0.215855 170 142 131
0.62341 -0.0813911 0.352988 0.89312 -0.446114 -0.057618 184 157 149
0.658612 -0.00728723 0.308669 0.844094 -0.477514 -0.243898 189 153 143
0.69849 0.276377 0.24747 0.840468 -0.229673 -0.490778 190 174 166
0.635202 0.507905 0.256893 0.683764 -0.0798525 -0.725322 169 134 136
0.576114 -0.230744 0.379526 0.921251 -0.221121 0.320003 203 186 182
0.665193 0.174388 0.190858 0.949299 -0.00238291 -0.314365 166 133 118
0.659485 0.0966273 0.146936 0.680023 -0.104924 -0.725644 166 122 102
0.574233 0.439656 0.118838 0.685619 0.0790432 -0.723657 175 161 154
0.5919 0.215001 0.102877 0.773559 0.452957 -0.443211 174 138 126
0.552246 0.3771 0.103133 0.507505 0.294419 -0.809788 164 148 139
0.636626 -0.0710468 0.102758 0.58175 0.105075 -0.806551 173 135 118
0.67834 -0.265798 0.0757922 0.900388 -0.00420084 -0.435068 180 160 150
0.6168 0.102784 0.0650956 0.848319 0.128841 -0.513571 183 146 133
0.596725 -0.0116375 0.0159691 0.231238 -0.636716 -0.73561 161 121 102
0.53677 -0.525219 0.106974 0.488615 -0.714973 -0.500069 106 79 73
0.560911 0.0986445 0.00163009 0.485205 0.321871 -0.813004 152 110 90
0.604492 -0.187398 -0.0004996 0.721255 0.209463 -0.66024 120 92 82
0.597046 -0.244299 -0.0268986 0.808224 0.0959545 -0.581005 180 163 156
0.574575 -0.17843 -0.0476421 0.889467 0.131735 -0.4376 186 169 164
0.499204 0.129518 -0.0357453 0.638684 0.103415 -0.762488 161 125 109
0.569941 -0.213345 -0.0474519 0.699855 0.0984891 -0.707463 120 91 82
0.560013 -0.102504 -0.0528508 0.635102 0.373138 -0.676323 163 146 136
0.450062 0.201986 -0.0393558 0.400607 0.350068 -0.846739 153 117 102
0.488429 0.083994 -0.0577919 0.703407 0.085995 -0.705565 168 139 126
0.551505 -0.331409 -0.0722362 0.462325 -0.411935 -0.785217 169 154 146
0.482287 -0.260795 -0.113328 0.386025 0.225264 -0.894561 157 141 132
0.438657 -0.201725 -0.150332 0.759181 -0.202512 -0.618574 170 155 148
0.195658 0.294253 -0.103225 0.943393 0.0121696 -0.331455 111 32 36
0.240316 0.0463486 -0.123991 0.950762 -0.0603344 -0.303995 146 117 114
0.234595 0.100626 -0.133098 0.66722 -0.00434399 -0.744847 151 114 113
0.190163 0.300318 -0.14393 0.943268 0.324224 0.0715851 176 143 147
0.130341 0.397121 -0.142597 0.615938 0.633963 -0.467664 133 16 19
0.21472 -0.149534 -0.134831 0.13137 -0.382045 -0.914759 155 130 125
0.198325 -0.0585956 -0.159702 0.442364 -0.19874 -0.874538 152 117 116
0.0240764 -0.280173 -0.0672302 0.309685 -0.873757 -0.375025 108 17 20
0.160243 -0.112486 -0.172867 0.611696 -0.0794194 -0.787097 158 131 131
-0.0386256 0.507432 -0.226078 0.965412 -0.149921 -0.213313 173 146 140
-0.00655102 -0.238038 -0.125904 0.413398 -0.778665 -0.471999 102 18 20
0.115893 -0.109007 -0.21505 0.449354 -0.568223 -0.689351 115 20 22
0.140916 0.179853 -0.259774 0.641743 0.140927 -0.75386 173 152 156
0.106534 0.244806 -0.264312 0.320509 0.141711 -0.936586 125 22 23
0.0738597 -0.156354 -0.206322 0.316049 -0.500037 -0.806273 142 81 84
-0.166318 -0.530976 -0.0591311 0.82979 0.0901172 0.550751 168 132 119
-0.161821 -0.498445 -0.086294 0.733458 0.629025 0.257617 149 110 98
0.074865 -0.0757869 -0.279144 0.725091 -0.536188 -0.432139 127 33 37
0.00291875 -0.215749 -0.234935 0.793157 -0.458721 0.400595 103 52 48
-0.120513 -0.471793 -0.160238 0.886326 -0.454269 0.0898157 169 132 122
0.0625931 -0.120717 -0.312469 0.95369 0.0686838 0.292844 91 41 41
-0.245474 -0.683394 -0.263823 0.905187 -0.396095 0.1541 174 148 139
-0.208595 -0.648318 -0.322929 0.494965 -0.817123 -0.295499 166 135 127
-0.168289 0.388247 -0.52343 0.634045 0.398686 -0.662597 134 90 77
-0.285311 -0.705218 -0.33406 0.596027 -0.702627 -0.388673 103 72 60
-0.0587791 0.02433 -0.589343 0.84397 -0.0272698 -0.535696 148 107 109
-0.236019 -0.675048 -0.383884 0.378135 -0.851967 -0.362169 122 106 84
0.125042 -0.342653 -0.606012 0.881196 -0.396723 -0.257109 184 156 148
-0.27305 -0.65655 -0.448683 0.385303 -0.858564 -0.338245 89 74 61
-0.410514 -0.717391 -0.411386 0.36772 -0.792539 -0.486481 101 91 75
-0.384565 0.493675 -0.682669 0.672277 0.387422 -0.630832 73 58 50
0.0419774 -0.396612 -0.656372 0.710659 -0.681733 -0.173795 174 151 147
-0.110042 -0.517995 -0.608008 0.368544 -0.830442 -0.417783 101 85 71
-0.102617 0.195818 -0.728056 0.664336 0.4901 -0.564321 107 79 63
-0.232999 0.25466 -0.770547 0.563931 0.515087 -0.645498 89 72 61
0.0581008 -0.316808 -0.772304 0.811396 -0.340861 -0.474816 165 140 133
-0.301046 -0.565434 -0.616149 0.332944 -0.824314 -0.45788 98 84 70
0.0619402 -0.30156 -0.775793 0.806486 -0.411949 -0.42412 167 142 135
0.0588943 -0.285832 -0.793186 0.496383 -0.242506 -0.833543 160 137 132
-0.00815101 -0.351772 -0.770849 0.63915 -0.600044 -0.481075 154 133 127
0.0251025 -0.216114 -0.806605 0.549305 -0.154214 -0.821269 143 110 99
-0.232057 -0.468139 -0.744729 0.29308 -0.76035 -0.579631 117 105 84
-0.0999387 -0.388388 -0.803827 0.401352 -0.832695 -0.38149 115 101 82
-0.296747 -0.468869 -0.76543 0.319267 -0.815894 -0.482065 95 84 67
-0.171882 0.0264348 -0.897385 0.539446 0.517807 -0.663983 90 71 61
-0.0643179 -0.327579 -0.893273 0.282837 -0.816989 -0.502526 90 77 64
-0.116776 -0.198748 -1.03464 0.62191 -0.347452 -0.701787 77 52 45
-0.133123 -0.204838 -1.04617 0.6266 -0.302494 -0.718241 67 43 37
0.70787 0.544185 0.357711 0.954395 -0.0758463 -0.288751 160 60 62
0.697488 0.728495 0.371126 0.913945 -0.17903 -0.364215 182 122 126
0.721729 0.372928 0.32836 0.855993 0.505649 -0.10768 174 96 97
0.625909 -0.0790753 0.374935 0.883259 -0.4688 -0.00897797 193 165 157
0.619992 0.600916 0.263832 0.514621 0.381159 -0.768039 139 49 46
0.668419 -0.00298083 0.285515 0.888778 -0.458287 -0.00688012 184 147 135
0.609414 0.552315 0.24154 0.599062 0.146847 -0.787121 134 34 35
0.637299 -0.112918 0.277227 0.985949 0.165533 -0.0224661 42 38 39
0.654833 -0.445273 0.293252 0.859559 -0.380873 0.340726 92 56 48
0.651257 0.107709 0.135432 0.826438 0.0899462 -0.555797 172 130 111
0.692428 -0.234477 0.141812 0.94124 0.298171 0.158621 186 165 155
0.677089 -0.382907 0.129805 0.963931 -0.203919 -0.171043 77 44 37
0.635298 -0.120161 0.12972 0.992403 0.0901149 0.0837552 192 166 155
0.622947 -0.0850927 0.0517122 0.864805 0.49581 -0.0792732 192 169 160
0.574318 0.105195 0.0153488 0.65973 0.33919 -0.670601 153 111 91
0.484601 0.449195 0.0802435 0.191951 0.104064 -0.975872 159 143 134
0.550192 -0.511274 0.0998949 0.588152 -0.692324 -0.418048 117 92 86
0.529145 0.195807 0.0191883 0.755422 0.316918 -0.573497 160 119 102
0.606971 -0.205472 -0.00919565 0.670307 0.195886 -0.715764 113 84 73
0.50837 0.15618 -0.0164418 0.488856 0.312883 -0.814325 163 124 109
0.0544743 0.672999 0.178193 0.399892 -0.741249 -0.539106 54 26 17
0.510175 -0.0148395 -0.0711463 0.514245 0.401548 -0.757833 167 149 142
0.0542792 0.717405 0.0780906 0.368389 -0.833759 -0.411259 65 34 24
0.158553 0.336322 -0.0796152 0.870773 0.456491 0.182677 122 29 32
0.106913 0.443488 -0.0513441 0.814926 0.577232 -0.0519506 160 141 146
0.396206 -0.236273 -0.145651 0.205724 -0.423418 -0.882267 157 141 134
0.122007 0.414516 -0.120026 0.729109 0.542389 -0.417391 144 35 40
0.204871 0.142122 -0.209779 0.963383 0.0324513 -0.266156 190 172 177
0.180041 0.248528 -0.199942 0.666954 0.0239588 -0.744713 130 29 33
0.175713 -0.00503325 -0.190178 0.669784 -0.31569 -0.672108 113 19 21
0.135287 0.321357 -0.218186 0.618263 0.512426 -0.595962 172 158 163
0.166995 -0.0950943 -0.174487 0.506383 -0.13681 -0.851386 157 135 135
0.0402226 0.423924 -0.201163 0.499479 0.33262 -0.799927 137 34 34
0.0322064 -0.265103 -0.0824268 0.536083 -0.765175 -0.356541 133 40 47
-0.0620151 -0.333575 -0.0250755 0.171178 -0.822608 -0.54223 156 143 151
0.0670804 0.281199 -0.272925 0.339109 0.246456 -0.907891 124 75 63
0.122774 0.087197 -0.274262 0.333762 0.0423039 -0.941708 123 18 19
-0.0230285 -0.218366 -0.209274 0.943042 -0.286484 0.169115 92 34 33
0.0509004 0.14306 -0.353365 0.755993 -0.379518 -0.53333 127 16 19
0.065349 0.0532421 -0.414874 0.852573 0.382821 -0.355763 186 166 172
-0.165817 -0.575367 -0.25375 0.98086 -0.163378 -0.105926 161 125 111
0.00413703 0.142467 -0.472359 0.908032 -0.41887 0.005128 121 11 15
-0.222806 -0.666607 -0.293616 0.430808 -0.855993 -0.285799 166 137 128
-0.224597 -0.655003 -0.289912 0.382885 -0.869892 -0.310943 172 142 133
0.0237299 0.00309593 -0.525096 0.692268 0.61896 -0.371016 118 20 21
-0.137981 0.330884 -0.520817 0.845196 0.205789 -0.493249 169 133 124
-0.0463028 0.0839556 -0.595686 0.835785 -0.318939 -0.446923 123 18 21
-0.225039 -0.662099 -0.406234 0.35228 -0.815999 -0.458305 120 105 83
0.0831756 -0.339885 -0.695318 0.768318 -0.605643 -0.207085 175 145 137
-0.463482 -0.709216 -0.462424 0.324026 -0.497276 -0.804813 112 101 79
-0.247721 -0.495813 -0.703568 0.295103 -0.762175 -0.576198 112 103 84
0.0108698 -0.157695 -0.855841 0.842759 0.229344 0.48699 124 70 53
0.0169789 -0.226436 -0.875712 0.945892 -0.0729007 0.316185 15 10 9
0.0064808 -0.293316 -0.875023 0.780221 -0.578097 0.238874 127 89 70
-0.349457 -0.455806 -0.799649 0.442532 -0.808448 -0.388042 105 98 79
0.743757 0.151594 0.456239 0.942125 0.115507 -0.314735 197 180 171
0.745511 0.312018 0.416949 0.987614 -0.142171 -0.0663761 194 158 158
0.599081 0.666356 0.252385 0.290543 0.333893 -0.896716 156 123 126
0.698885 -0.318246 0.233634 0.910686 -0.24238 0.334519 194 176 170
0.67734 0.0859033 0.189998 0.846536 0.53233 -0.00127707 183 149 137
0.666539 -0.0430752 0.210132 0.86219 -0.429646 0.268389 195 164 156
0.605578 0.162279 0.0773007 0.781205 0.230454 -0.58018 182 146 133
0.432105 0.45602 0.0756712 0.100046 0.189972 -0.976679 156 141 133
0.560785 0.147126 0.0294718 0.400069 0.361753 -0.842068 154 113 95
0.574273 -0.0234391 -0.0119885 0.685565 0.0249613 -0.727584 159 126 111
-0.107666 0.65924 0.0314858 0.381673 -0.867888 -0.317958 47 21 16
0.241142 0.147212 -0.127165 0.477624 0.158119 -0.864219 119 20 22
-0.102187 0.731684 -0.133951 0.475143 -0.805373 -0.35442 79 44 30
0.112705 0.166224 -0.282777 0.562093 0.155279 -0.812367 138 108 111
-0.264035 0.693367 -0.309918 0.953257 0.226635 0.199845 67 35 24
0.0827955 -0.102456 -0.388008 0.857057 -0.035251 0.514014 183 144 137
-0.18837 -0.646403 -0.296107 0.383887 -0.873671 -0.298881 168 136 127
-0.282304 -0.733935 -0.255026 0.373464 -0.79761 -0.473649 171 146 137
-0.0179964 0.157243 -0.575919 0.882001 0.0839067 -0.463719 180 163 168
-0.0229135 -0.468148 -0.479013 0.950943 -0.256908 0.172357 176 148 140
0.126923 -0.316832 -0.621996 0.884573 -0.22091 -0.410767 185 152 140
0.0558472 -0.386922 -0.642805 0.603348 -0.790694 -0.103796 177 150 143
-0.0720736 0.0614775 -0.67155 0.876802 -0.394117 -0.275485 171 146 150
-0.578014 -0.803978 -0.330931 0.364722 -0.797117 -0.481231 101 93 75
-0.0863829 -0.529184 -0.576027 0.29976 -0.810964 -0.502475 124 106 86
0.0292225 -0.35863 -0.747711 0.41243 -0.802401 -0.431339 166 138 130
-0.219581 0.111933 -0.862236 0.650652 0.566602 -0.505583 101 84 70
-0.0590802 -0.212854 -0.995564 0.613094 0.310764 -0.72632 78 47 38
0.679395 0.00537943 0.246946 0.98924 -0.145285 0.0171719 187 150 136
0.581098 -0.541135 0.140739 0.554061 -0.625118 -0.549767 61 35 30
0.586526 0.0200266 -0.00801801 0.134963 -0.68867 -0.712403 166 131 116
0.485871 -0.195196 -0.108268 0.533293 -0.0709454 -0.84295 160 144 136
0.209797 -0.00409128 -0.156482 0.469165 0.0464016 -0.88189 105 12 14
0.0453424 -0.133947 -0.226844 0.171588 -0.388804 -0.905202 128 63 65
-0.0123787 0.452616 -0.297663 0.769419 0.403845 -0.494876 183 154 146
0.0891641 0.0836432 -0.314514 0.993957 0.101183 -0.0425697 163 105 109
-0.267619 -0.709905 -0.24364 0.406185 -0.80688 -0.428904 185 156 146
0.178319 -0.273195 -0.516155 0.857529 -0.51171 0.0528823 174 134 119
0.101754 -0.0947604 -0.623542 0.651632 0.737225 -0.178535 179 154 149
-0.239271 -0.528005 -0.652977 0.308836 -0.796652 -0.519582 117 105 86
-0.035272 -0.285805 -0.940539 0.313736 -0.78356 -0.536286 115 100 81
0.643039 0.00621251 0.454046 0.852054 -0.521548 -0.0446092 187 167 162
0.657953 -0.471707 0.157504 0.825595 -0.487271 -0.284535 72 43 38
0.562925 0.466438 0.114853 0.615882 0.120149 -0.778622 174 160 154
0.545745 0.0729914 -0.0104476 0.611791 0.0867406 -0.78625 161 126 109
0.484182 -0.0531802 -0.097124 0.516752 0.134053 -0.845575 159 142 134
0.0860625 -0.139496 -0.210614 0.429171 -0.275361 -0.860225 115 18 20
-0.0398457 0.425418 -0.375677 0.694031 0.0950021 -0.713649 168 137 127
0.160501 -0.124232 -0.516297 0.910359 0.310697 -0.273338 194 164 154
0.0646922 -0.40877 -0.44951 0.868435 -0.188949 -0.458388 185 149 136
-0.12022 0.209658 -0.730251 0.55725 0.501035 -0.662145 115 93 74
0.585923 0.427158 0.127911 0.691551 0.0729149 -0.718639 177 162 155
0.692621 -0.235692 0.118932 0.947943 0.291549 -0.128075 195 176 169
0.50094 -0.403249 -0.0663673 0.412112 -0.528913 -0.741899 173 161 156
-0.115159 -0.374389 -0.0515338 0.566072 -0.795256 0.217097 77 33 29
-0.0492626 0.383325 -0.389941 0.851218 0.119431 -0.511042 172 141 131
0.507045 -0.298996 -0.105716 0.383026 -0.212349 -0.898998 167 152 144
0.164463 0.028201 -0.238215 0.849895 -0.273939 -0.45015 170 76 80
0.15858 -0.274023 -0.580003 0.843874 -0.284948 -0.454623 174 140 129
-0.053961 0.177087 -0.644843 0.479923 0.509579 -0.714144 127 22 23
-0.265989 -0.645351 -0.471519 0.440122 -0.844286 -0.305736 102 89 72
