ply
format ascii 1.0
element vertex 95
property float x
property float y
property float z
property float nx
property float ny
property float nz
property uchar diffuse_red
property uchar diffuse_green
property uchar diffuse_blue
end_header
0.521374 -0.0355555 0.691244 0.323804 -0.896836 0.301392 186 161 153
0.507735 -0.0998917 0.609706 0.885531 -0.44117 0.145614 205 177 171
-0.093484 0.383721 1.12236 0.484618 -0.864174 -0.135453 130 89 79
0.69494 0.099948 0.326259 0.853025 -0.451164 -0.262295 177 157 148
0.422012 -0.59188 0.374366 0.49387 -0.829823 0.25978 177 160 156
0.490607 -0.587767 0.322804 0.543785 -0.789023 0.285901 78 46 40
0.626189 -0.416043 0.0804054 0.742312 -0.594535 -0.309031 183 172 170
0.476287 -0.583383 0.257204 0.194142 -0.980312 -0.0360183 68 38 33
0.208592 -0.419187 0.441051 -0.0471254 -0.995056 0.0874246 168 156 154
0.473542 -0.583848 0.198959 0.886852 -0.459731 -0.0462634 75 46 39
0.526828 -0.562722 0.152069 0.239837 -0.842849 -0.481751 73 43 37
-0.448654 0.358628 0.798901 0.12755 -0.985864 -0.108635 104 67 58
-0.0272182 -0.360511 0.126862 0.22415 -0.844966 -0.485583 157 142 139
-0.0833243 -0.334432 0.0791455 -0.0429536 -0.796777 -0.602744 125 50 57
0.0505045 -0.25821 -0.0538944 0.570961 -0.810492 -0.13079 119 34 35
-0.759234 0.0312815 0.365266 0.380386 -0.909332 0.168587 159 128 123
-0.0641774 -0.311206 -0.0955038 0.77517 -0.590356 -0.224924 128 84 88
-0.254741 -0.434309 0.0832913 0.772182 -0.406732 0.488165 84 12 13
-0.258016 -0.500523 0.00922875 0.726641 -0.408977 0.552024 182 149 142
-0.127835 -0.443276 -0.14531 0.799542 -0.526419 0.289164 160 123 111
-0.245474 -0.683394 -0.263823 0.905187 -0.396095 0.1541 174 148 139
-0.479809 -0.698217 -0.0623434 0.0844497 -0.719443 0.689399 171 140 129
-0.208595 -0.648318 -0.322929 0.494965 -0.817123 -0.295499 166 135 127
-0.533778 -0.712289 -0.0780679 0.0479986 -0.774256 0.631049 154 125 119
-0.0758267 -0.533488 -0.554409 0.369766 -0.82907 -0.419422 127 108 85
-0.420246 -0.763816 -0.199606 0.674682 -0.70529 -0.217643 169 150 146
-0.384359 -0.730686 -0.238974 0.0121854 -0.961419 -0.274818 170 148 140
-0.153529 -0.563875 -0.552048 0.372866 -0.823076 -0.428389 97 82 68
-0.179558 -0.623444 -0.449698 0.505967 -0.86137 0.0451634 124 107 84
-0.0833917 -0.442315 -0.704468 0.632971 -0.590341 -0.500845 106 84 69
-0.42612 -0.720188 -0.285322 0.0249039 -0.967166 -0.252922 131 97 85
-0.27305 -0.65655 -0.448683 0.385303 -0.858564 -0.338245 89 74 61
-0.184485 -0.567996 -0.574516 0.35702 -0.841792 -0.404873 120 107 86
-0.513738 -0.81306 -0.185713 0.806874 -0.508494 0.300645 130 101 80
-0.0890917 -0.396215 -0.793342 0.325291 -0.813088 -0.482777 120 106 85
-0.287405 -0.585453 -0.570623 0.326178 -0.813633 -0.481258 116 105 86
-0.346231 -0.626623 -0.539748 0.291552 -0.787 -0.543718 97 85 70
-0.327921 -0.6107 -0.557218 0.284781 -0.850009 -0.443154 94 81 66
-0.481301 -0.75165 -0.377979 0.328171 -0.763319 -0.556461 114 102 82
-0.301046 -0.565434 -0.616149 0.332944 -0.824314 -0.45788 98 84 70
-0.597387 -0.816759 -0.258928 0.181646 -0.861872 -0.473479 116 101 79
-0.279132 -0.49364 -0.712858 0.346884 -0.754913 -0.556577 99 88 73
-0.406569 -0.552573 -0.603906 0.310622 -0.668391 -0.675846 117 103 80
-0.445561 -0.593694 -0.545947 0.324855 -0.883059 -0.33864 102 88 70
-0.458379 -0.554632 -0.626813 0.165192 -0.809294 -0.563698 112 99 77
-0.567763 -0.704659 -0.465727 0.336934 -0.772173 -0.538725 109 98 78
-0.485275 -0.586985 -0.583736 0.094742 -0.849396 -0.519183 105 92 75
-0.611976 -0.737955 -0.451706 0.307733 -0.756569 -0.576979 84 73 63
0.504125 -0.578906 0.329417 0.364405 -0.907797 0.207636 80 48 42
0.461542 -0.604727 0.334371 0.714847 -0.697981 0.0426104 138 114 107
0.450103 -0.587164 0.26223 0.976246 -0.19138 0.101579 83 52 44
0.477122 -0.550749 0.106034 0.185687 -0.838614 -0.5121 176 164 162
-0.0643723 -0.374849 0.241036 -0.001001 -0.999334 0.0364831 155 133 133
0.175173 0.0150166 -0.189341 0.912444 -0.300423 -0.277835 116 16 18
0.142193 -0.0293119 -0.234598 0.815371 -0.452651 -0.360938 172 156 159
-0.246562 -0.44883 0.00290425 0.652511 -0.757617 0.0156645 173 139 132
-0.130885 -0.423486 -0.206416 0.96094 -0.212575 -0.177217 147 105 91
-0.0763629 -0.567658 -0.477055 0.504476 -0.677007 0.535879 114 76 61
-0.116917 -0.587021 -0.496851 0.437174 -0.788557 -0.432501 128 109 86
-0.206296 -0.637232 -0.436595 0.340507 -0.799115 -0.49545 126 110 89
-0.161297 -0.578923 -0.531014 0.373302 -0.869758 -0.322748 91 76 63
-0.477896 -0.779106 -0.239932 0.650599 -0.658282 0.378663 125 99 77
-0.258827 -0.634166 -0.494379 0.399381 -0.877745 -0.264685 118 105 84
-0.0983019 -0.306052 -0.936062 0.27293 -0.741905 -0.612444 118 104 82
-0.255736 -0.481803 -0.732239 0.284522 -0.795744 -0.534639 118 105 85
-0.463482 -0.709216 -0.462424 0.324026 -0.497276 -0.804813 112 101 79
-0.271155 -0.358774 -0.876072 0.210109 -0.596886 -0.774327 112 99 78
-0.404761 -0.464018 -0.766956 0.419115 -0.907767 0.017335 110 97 76
-0.571193 -0.639773 -0.543826 -0.0042915 -0.883565 -0.468289 110 97 76
0.675639 0.152771 0.566937 0.983888 -0.171194 0.0515398 217 204 201
0.5426 -0.0339593 0.657342 0.545804 -0.837866 0.0088828 186 165 159
0.444226 -0.145378 0.641878 0.626419 -0.461641 0.628082 215 188 182
0.23947 -0.208269 0.623785 0.431517 -0.725639 0.535948 196 170 164
0.396765 -0.59602 0.163362 0.306143 -0.767076 -0.5638 182 170 168
0.33231 -0.592545 0.0953362 0.282958 -0.223713 -0.932678 174 169 168
-0.246281 -0.328684 0.278787 -0.12081 -0.87526 0.468322 174 137 145
-0.261958 -0.474377 0.150802 0.577415 -0.712587 -0.398511 167 124 131
-0.319766 -0.521595 0.0903887 0.56712 -0.655789 0.498312 148 45 46
-0.232759 -0.485506 -0.00919549 0.585409 -0.615762 0.527384 182 148 139
-0.199394 -0.658495 -0.298293 0.374085 -0.8677 -0.327348 170 139 130
-0.285311 -0.705218 -0.33406 0.596027 -0.702627 -0.388673 103 72 60
-0.330054 -0.698897 -0.395381 0.379824 -0.851073 -0.362502 121 107 85
-0.386421 -0.522866 -0.653147 0.122167 -0.904978 -0.40754 116 104 82
0.565922 -0.190801 -0.0568573 0.748504 -0.174658 -0.639716 179 161 156
0.33687 -0.602316 0.193085 -0.230089 -0.764486 -0.602179 174 167 166
0.346563 -0.591251 0.1294 0.212977 -0.806267 -0.551882 174 166 163
-0.0791707 -0.547577 -0.537907 0.343296 -0.840653 -0.418869 127 107 84
-0.284886 -0.699246 -0.361611 0.375092 -0.851207 -0.367087 125 105 83
-0.270389 -0.684442 -0.382766 0.363454 -0.826344 -0.430184 123 106 84
-0.54585 -0.70067 -0.454096 0.340477 -0.783473 -0.519851 111 99 77
-0.600085 0.237591 0.668921 0.434707 -0.82583 -0.359212 90 49 38
0.169611 -0.516883 0.0615429 -0.120015 -0.613702 -0.780363 170 162 160
-0.357707 -0.696456 -0.413114 0.348381 -0.818261 -0.457252 118 106 85
-0.0242892 0.357823 1.04841 0.475661 -0.875651 0.0835534 166 123 129
-0.135207 -0.601437 -0.47483 0.366908 -0.816509 -0.445749 126 108 84
