ply
format ascii 1.0
element vertex 85
property float x
property float y
property float z
property float nx
property float ny
property float nz
property uchar diffuse_red
property uchar diffuse_green
property uchar diffuse_blue
end_header
0.50509 0.658732 0.67462 0.999603 -0.00149344 0.0281396 156 44 50
0.656668 0.693167 0.524957 0.849384 0.163203 0.501908 190 168 174
0.664444 0.667979 0.540887 0.85634 0.0206964 0.515997 195 166 172
0.684199 0.611099 0.511581 0.869704 0.117255 0.479442 154 34 38
0.537566 0.549881 0.63692 0.858356 -0.0324691 0.512027 165 47 49
0.694687 0.641874 0.452162 0.962412 -0.0296546 0.269967 145 29 33
0.661781 0.539639 0.526249 0.851819 0.069303 0.519233 179 124 132
0.704113 0.555423 0.466781 0.986192 -0.152816 0.0638118 190 164 169
0.688251 0.468447 0.512101 0.842597 0.0488271 0.536326 183 109 113
0.631811 0.413029 0.547486 0.838959 0.0441682 0.5424 159 48 52
0.603234 -0.014762 0.523367 0.700667 -0.65324 0.286956 184 164 158
0.552295 -0.0610933 0.565019 0.547706 -0.829288 -0.110908 196 169 161
0.543818 -0.148539 0.506844 0.929299 -0.369043 0.0145108 186 156 146
0.623605 -0.090703 0.376041 0.163303 -0.924711 -0.343861 190 161 152
0.616093 -0.107008 0.379949 0.373669 -0.826206 -0.42161 189 158 146
0.517695 -0.193647 0.49817 0.96786 -0.110138 0.226088 92 72 71
0.523611 -0.261296 0.457295 0.903802 0.0120615 0.427781 193 175 173
0.557894 -0.287931 0.439327 0.877811 0.0122714 0.478851 200 184 182
0.610329 -0.192176 0.30576 0.87402 0.24195 0.421366 202 185 182
0.603934 -0.441063 0.390866 0.822722 -0.554001 0.127318 189 171 167
0.57318 -0.471684 0.409459 0.855897 -0.440483 0.270952 183 166 162
0.700419 -0.358545 0.230461 0.789561 -0.610057 -0.0665164 181 163 158
0.680141 -0.400958 0.239384 0.943056 -0.332634 0.000291407 88 53 46
0.559275 -0.503032 0.379054 0.750348 -0.637149 0.176125 100 64 58
0.680045 -0.39622 0.196726 0.949069 -0.251414 -0.189895 90 56 50
-0.0416499 0.312051 -0.348007 0.602918 -0.584373 -0.543139 142 102 94
0.470586 -0.589948 0.318879 0.901548 -0.432462 0.0137328 83 51 44
-0.268819 -0.292434 0.316644 0.2806 -0.657685 0.699081 167 142 148
0.475695 -0.587999 0.279178 0.438405 -0.896701 0.0610614 84 51 44
-0.786728 -0.144411 0.23222 0.832443 -0.295206 0.468927 115 63 55
0.422925 -0.585666 0.123024 0.46993 -0.716047 -0.51618 148 133 127
-0.199736 -0.444421 0.198773 0.773519 -0.626234 -0.0974697 139 42 46
-0.202123 -0.37582 -0.0196688 0.909545 -0.0760737 0.408582 82 37 35
-0.288949 -0.461451 0.0705135 0.325313 -0.904091 0.277111 99 24 25
-0.210398 -0.425391 -0.0130069 0.930128 -0.0307665 0.365944 139 100 96
-0.0420141 -0.314272 -0.235863 0.568445 -0.759646 0.315924 128 83 73
-0.135106 -0.416449 -0.127678 0.916098 -0.298062 0.268186 149 111 102
-0.64486 -0.605335 -0.00663455 0.339371 -0.34192 0.876309 131 84 70
-0.11919 -0.500507 -0.261918 0.980973 -0.105761 -0.162804 159 122 109
-0.245474 -0.683394 -0.263823 0.905187 -0.396095 0.1541 174 148 139
-0.481821 -0.78006 -0.16766 0.422349 -0.898763 0.117671 148 119 115
-0.420246 -0.763816 -0.199606 0.674682 -0.70529 -0.217643 169 150 146
-0.51343 -0.799316 -0.129921 0.684439 -0.684802 0.25018 72 47 42
0.671416 0.712883 0.499523 0.848734 0.152362 0.506394 191 173 178
0.476404 0.514021 0.753822 0.873172 0.214197 0.437826 178 102 105
0.495307 0.564385 0.694462 0.862628 -0.00245831 0.505833 198 156 161
0.529234 0.433411 0.707505 0.893433 0.247085 0.375137 191 161 166
0.401027 0.176976 0.893908 0.123173 -0.744903 -0.655704 195 172 173
0.525623 0.205928 0.779378 0.285573 -0.453925 0.844038 196 180 180
0.625247 0.24209 0.63701 0.87134 0.17548 0.458227 162 59 61
0.735713 0.381931 0.469396 0.993254 0.0970678 0.0634362 193 155 160
0.632282 0.219987 0.649801 0.866089 -0.206143 0.455408 186 130 132
0.64102 0.241658 0.629456 0.929714 -0.123257 0.347042 171 77 78
0.69287 0.173797 0.593112 0.843626 0.063524 0.533161 203 187 182
0.712304 0.224276 0.279694 0.953025 -0.244001 -0.179468 189 173 164
0.611309 -0.439205 0.353831 0.902638 -0.343447 0.259401 114 77 68
0.469161 -0.599386 0.210854 0.839831 -0.54177 0.0342052 92 62 54
0.441498 -0.599941 0.171835 0.511151 -0.769709 -0.382456 168 155 151
-0.292379 -0.482358 0.168694 0.394847 -0.852546 0.342434 181 143 152
0.0708741 -0.258734 -0.318401 0.719763 0.141898 0.679564 173 136 124
-0.115885 -0.375736 -0.223052 0.80996 -0.554747 -0.190317 94 49 40
-0.136508 -0.40463 -0.191427 0.920242 -0.390827 -0.020208 137 96 84
-0.0663567 -0.377792 -0.256539 0.139887 -0.504013 0.852293 164 124 111
-0.101452 -0.522795 -0.472954 0.828415 -0.539938 0.148979 105 72 63
-0.490028 -0.771017 -0.115358 0.391656 -0.879132 0.271537 152 123 119
-0.483168 -0.775257 -0.163837 0.580028 -0.695356 0.42432 148 119 114
0.590187 0.607488 0.600394 0.817096 -0.105946 0.566683 197 159 166
0.69391 0.664027 0.437934 0.945086 -0.315162 0.0865142 150 34 38
0.512159 0.434139 0.742352 0.87436 0.227143 0.428837 182 132 137
0.656121 -0.37976 0.350998 0.910675 -0.205342 0.358476 199 183 180
-0.167771 -0.424971 -0.081507 0.803174 -0.474506 0.360214 150 112 103
-0.0666291 -0.383495 -0.272149 0.0172018 -0.633837 0.773275 165 124 111
-0.0272877 -0.468061 -0.562288 0.637203 -0.731305 -0.243239 146 111 102
-0.0233235 0.351195 -0.349802 0.758696 -0.15753 -0.632111 168 134 124
0.0657357 -0.179519 -0.336765 0.200798 -0.720634 0.663602 181 144 132
0.538666 0.634396 0.647198 0.942597 0.248279 0.223312 175 118 126
0.473537 0.300512 0.841617 0.858906 -0.245526 0.449441 172 66 71
0.629522 -0.011212 0.4602 0.62189 -0.780511 -0.0636886 180 155 148
0.444226 -0.145378 0.641878 0.626419 -0.461641 0.628082 215 188 182
-0.254741 -0.434309 0.0832913 0.772182 -0.406732 0.488165 84 12 13
0.573464 -0.258843 0.370056 0.796537 -0.512814 0.320235 203 185 180
0.654292 0.07217 0.616075 0.7118 -0.581126 0.394503 202 187 179
0.717124 0.104842 0.497573 0.877963 -0.408334 0.249888 195 180 174
-0.309269 -0.490171 0.179081 0.403359 -0.861083 0.309575 184 140 150
0.710872 0.106193 0.338131 0.644443 -0.640364 -0.417885 187 171 163
