ply
format ascii 1.0
element vertex 465
property float x
property float y
property float z
property float nx
property float ny
property float nz
property uchar diffuse_red
property uchar diffuse_green
property uchar diffuse_blue
end_header
0.703304 0.411912 0.311479 0.936122 0.322708 -0.139765 166 86 89
0.71694 0.403734 0.385728 0.886208 -0.142536 -0.440815 173 84 84
0.732252 0.332358 0.331005 0.897991 0.22102 -0.380477 195 175 172
0.719259 0.516726 0.348349 0.909966 -0.299732 -0.28657 146 21 24
0.699586 0.701579 0.372372 0.934289 0.0261025 -0.355557 152 33 36
0.699362 0.471132 0.332759 0.894686 -0.206003 -0.396357 188 159 163
0.688054 0.693876 0.359206 0.823153 -0.132458 -0.552154 149 28 32
0.705133 0.372246 0.300899 0.900992 -0.062708 -0.42928 196 176 173
0.701552 0.296077 0.248343 0.713346 -0.355195 -0.604131 190 174 166
0.674598 0.528869 0.295883 0.722793 -0.0826619 -0.686103 132 17 19
0.668438 0.657922 0.319697 0.834727 0.0324019 -0.549709 185 156 161
0.665963 0.590291 0.294667 0.695593 0.340615 -0.63256 160 128 129
0.666552 0.136857 0.190929 0.908302 0.387066 -0.158641 192 160 148
0.66204 0.0766489 0.143288 0.76434 0.0878715 -0.638798 166 121 101
0.57886 -0.546106 0.199981 0.396671 -0.470572 -0.788171 72 42 37
0.635607 -0.43791 0.109579 0.705758 -0.53091 -0.469085 75 44 39
0.635636 0.506839 0.257148 0.677655 -0.0946006 -0.72927 168 134 136
0.654549 -0.399102 0.10296 0.777221 -0.301026 -0.55255 149 127 125
0.657276 -0.371388 0.0859942 0.842629 -0.330235 -0.425349 186 172 169
0.51579 0.847963 0.369895 0.430319 0.657135 -0.618869 57 34 24
0.658767 -0.025077 0.122224 0.866116 0.0122663 -0.499693 174 133 116
0.647537 -0.381187 0.0715898 0.575975 -0.577616 -0.578457 179 165 160
0.662164 -0.298453 0.0335525 0.784575 0.0447557 -0.618416 180 160 152
0.586329 0.537777 0.20635 0.744282 0.44747 -0.495798 162 140 140
0.631632 -0.409488 0.057632 0.52368 -0.742293 -0.418044 178 164 159
0.651475 -0.305701 0.0205522 0.770243 0.0304455 -0.637024 187 170 164
0.602135 0.259768 0.139532 0.806171 0.11146 -0.581089 154 127 113
0.602504 0.201639 0.103145 0.706509 0.399815 -0.583946 177 142 130
0.475903 0.810293 0.293284 0.448146 0.66112 -0.601736 66 28 19
0.56612 0.464939 0.114992 0.58311 0.107399 -0.805263 174 160 153
0.581678 0.217787 0.0834125 0.734479 0.500645 -0.458142 157 112 95
0.517398 0.608589 0.160245 0.258456 0.14744 -0.954705 123 97 97
0.593889 -0.172365 -0.00914265 0.790301 0.0490213 -0.610755 117 88 77
0.565771 -0.0555884 -0.02932 0.679694 0.368719 -0.634085 175 156 148
0.561391 -0.208482 -0.0562184 0.646021 0.121342 -0.753613 139 113 105
0.4179 0.680932 0.187588 0.56738 0.392945 -0.723653 47 25 18
0.533766 0.084759 -0.0202372 0.50738 0.18274 -0.842124 160 126 112
0.497236 0.145502 -0.0310453 0.62054 0.140071 -0.771563 167 133 119
0.513446 -0.273941 -0.102106 0.247835 -0.0836254 -0.965187 167 151 144
0.50385 -0.188938 -0.10165 0.438271 -0.036861 -0.898087 162 146 139
0.409672 0.35126 0.0188281 0.481508 0.626882 -0.61251 154 126 116
0.49209 -0.108005 -0.104173 0.44295 0.319801 -0.83757 165 148 140
0.445725 0.0577649 -0.0724448 0.384616 -0.119484 -0.915311 151 116 100
0.457518 0.126667 -0.0656514 0.439289 0.184503 -0.879195 160 128 115
0.273167 0.639911 0.149401 0.152832 -0.892149 -0.425102 54 30 20
0.23879 0.591765 0.179834 0.183812 -0.653631 -0.734151 142 129 125
0.253279 0.637215 0.14713 0.205151 -0.887751 -0.412081 63 38 27
0.42164 -0.234433 -0.143113 0.427536 -0.610118 -0.667061 144 124 116
0.364264 -0.272228 -0.140514 0.0750041 -0.290472 -0.953939 110 85 76
0.379028 -0.224032 -0.162318 0.164136 -0.514719 -0.841501 161 145 138
0.344269 -0.28615 -0.137934 0.00227558 -0.27346 -0.96188 130 107 97
0.322317 -0.298634 -0.132094 -0.0538663 -0.312214 -0.948483 155 137 129
0.343506 -0.256408 -0.145003 -0.00635131 -0.280826 -0.959738 160 143 137
0.11825 0.603439 0.166181 0.408635 -0.514877 -0.753603 45 23 17
0.293017 0.0854195 -0.0950602 0.273589 -0.26191 -0.925501 148 111 99
0.322682 -0.247388 -0.149756 0.00496831 -0.354074 -0.935204 168 155 149
0.297896 -0.287178 -0.135341 -0.100389 -0.242186 -0.965022 127 107 101
0.266459 0.0361325 -0.0945896 0.501404 -0.0932349 -0.860175 95 53 46
0.254502 -0.361654 -0.100868 -0.0601532 -0.489047 -0.870181 168 156 155
0.276858 -0.326167 -0.119298 0.0155754 -0.410994 -0.911505 153 138 133
0.187967 0.324544 -0.0457146 0.446946 0.685775 -0.574414 136 98 93
0.226728 -0.332913 -0.113105 -0.164072 -0.337823 -0.926799 143 126 123
0.241127 -0.0567618 -0.134206 0.541375 0.210606 -0.813977 108 55 52
0.126691 0.439856 -0.00042845 0.960528 0.226537 -0.161453 86 24 26
0.209343 0.224639 -0.131426 0.884329 0.0918567 -0.457739 157 113 117
0.214105 0.173883 -0.14437 0.943553 -0.0613533 -0.325487 100 12 15
0.21609 0.032691 -0.15445 0.703297 -0.0780684 -0.706597 116 24 25
0.119623 0.425091 -0.0543836 0.89792 0.439559 -0.0229804 162 140 145
0.0451334 0.515876 0.115229 0.573993 0.0606936 -0.816608 47 22 21
0.180643 0.342436 -0.141817 0.651984 0.302675 -0.695201 139 22 24
0.169073 0.3456 -0.157244 0.768946 0.336178 -0.543788 139 35 39
0.117046 0.419228 -0.117975 0.775881 0.5161 -0.362836 145 42 47
0.183466 0.20978 -0.211858 0.616554 0.355003 -0.702732 111 13 17
0.154259 0.327166 -0.181427 0.705531 0.288539 -0.64728 175 149 153
0.167984 0.0154185 -0.221511 0.840431 -0.428522 -0.331729 151 38 40
0.171402 0.223205 -0.218819 0.674925 0.322395 -0.663731 112 13 16
0.00490238 -0.285497 -0.062428 0.464051 -0.772317 -0.433801 119 20 23
0.119171 -0.141785 -0.193491 0.721935 -0.311805 -0.617728 116 14 16
0.125475 -0.154766 -0.178527 0.684728 -0.690969 -0.231757 124 17 19
-0.048547 0.556077 -0.00132158 0.283901 0.547243 -0.787352 78 36 33
0.161869 0.0384398 -0.254296 0.78542 -0.201682 -0.585182 167 81 85
0.100157 0.0297912 -0.293284 0.484841 -0.097472 -0.869154 132 83 85
0.078958 -0.0858715 -0.261467 0.704216 -0.474185 -0.52842 122 22 25
0.0494261 0.384069 -0.220338 0.0984593 0.56275 -0.820743 127 26 25
-0.0863148 0.739501 -0.119013 0.574343 -0.614948 -0.54034 87 50 35
0.074865 -0.0757869 -0.279144 0.725091 -0.536188 -0.432139 127 33 37
0.0752819 0.0440199 -0.316801 0.93712 -0.184444 -0.296291 157 86 89
0.0333109 0.400437 -0.26567 0.936897 0.342776 -0.0687659 176 137 127
-0.185639 -0.43601 -0.0663783 0.926679 -0.309547 0.21318 157 122 114
0.0701818 -0.022955 -0.31873 0.930378 0.22182 -0.29188 168 99 104
0.0105702 0.298452 -0.274685 0.713129 0.338567 -0.613856 148 109 100
-0.0540209 0.502986 -0.207936 0.712234 0.510503 -0.481777 171 143 137
0.0809059 0.0710511 -0.353654 0.994061 -0.0230057 -0.106363 165 36 40
0.060124 0.178053 -0.337078 0.96199 0.2722 -0.0219884 138 17 21
0.0790866 0.00381768 -0.370652 0.990121 0.117157 0.0770282 165 26 30
0.0637952 0.101931 -0.364765 0.747176 0.586652 -0.312358 147 24 27
-0.128494 0.734814 -0.163918 0.369696 -0.738798 -0.563473 80 43 30
0.00623404 0.336836 -0.312473 0.805269 0.194986 -0.55993 170 136 127
-0.0448946 0.501794 -0.275793 0.73863 0.530028 -0.416528 172 147 140
0.0822774 -0.0205533 -0.398142 0.988826 0.130415 -0.0722185 172 53 57
0.188195 -0.199836 -0.572407 0.961338 0.0462636 -0.271457 190 160 151
0.0473898 0.0465446 -0.45556 0.829165 0.512271 -0.22375 186 153 159
-0.19012 -0.640298 -0.222005 0.764921 -0.614516 -0.193045 176 146 137
0.0574221 0.00845232 -0.459628 0.889199 0.389743 -0.239635 184 163 167
-0.0398457 0.425418 -0.375677 0.694031 0.0950021 -0.713649 168 137 127
0.0565756 -0.00133096 -0.47994 0.765436 0.405675 -0.499534 177 145 148
-0.0440088 0.364656 -0.386088 0.779419 0.0736571 -0.622158 171 138 129
0.0469798 0.000795671 -0.493955 0.813674 0.391645 -0.429592 161 101 102
0.0110728 0.0828831 -0.465001 0.773349 0.630466 -0.0666628 144 31 35
0.0264156 0.0353782 -0.490685 0.628541 0.466889 -0.622052 156 43 46
0.141948 -0.29069 -0.617596 0.859998 -0.494729 -0.125088 183 152 141
-0.0690397 0.324763 -0.41172 0.695786 -0.140384 -0.704397 168 134 126
-0.0877362 0.347317 -0.43767 0.779964 0.0444779 -0.624241 170 137 127
-0.144877 0.535461 -0.390663 0.545441 0.709959 -0.44548 165 140 134
0.126559 -0.307571 -0.638981 0.640471 -0.700894 -0.313917 179 149 139
-0.0383951 0.220792 -0.499179 0.658452 0.694879 -0.289109 145 26 27
-0.19093 0.558622 -0.377123 0.494841 0.670426 -0.552867 157 130 124
-0.204103 -0.646326 -0.38628 0.444813 -0.390904 -0.805813 132 111 87
-0.201457 0.589699 -0.402569 0.677222 0.0945386 -0.72968 73 44 37
0.00709011 -0.431774 -0.587265 0.613507 -0.784819 -0.0875645 164 137 130
-0.236864 0.677683 -0.377701 0.977205 0.152186 0.148019 108 59 46
-0.0335989 0.0545055 -0.55951 0.694351 0.277375 -0.664033 144 86 88
-0.155752 0.464223 -0.464657 0.872645 0.428828 -0.233659 158 131 124
-0.152219 0.435011 -0.488447 0.779783 0.311502 -0.543051 156 126 118
-0.073318 0.239596 -0.562466 0.55967 0.756403 -0.338561 149 106 98
-0.0428106 0.170485 -0.617279 0.59244 0.502919 -0.629355 154 83 90
-0.216603 -0.629036 -0.459193 0.471526 -0.817799 -0.329951 121 106 85
-0.00239195 -0.417903 -0.659306 0.627607 -0.639754 -0.44365 154 134 131
0.059936 -0.357418 -0.703322 0.554326 -0.741571 -0.377881 165 135 125
-0.0434236 0.123065 -0.639887 0.86971 -0.0693976 -0.488659 140 16 19
-0.153529 -0.563875 -0.552048 0.372866 -0.823076 -0.428389 97 82 68
-0.281444 0.694014 -0.446478 0.623017 0.526894 -0.578128 101 80 65
-0.191612 -0.587424 -0.531485 0.370414 -0.818175 -0.439755 99 85 70
-0.264528 0.625669 -0.492793 0.570269 0.542959 -0.616433 108 86 69
0.0712138 -0.167105 -0.764127 0.828037 -0.0382326 -0.559368 168 140 131
0.0665028 -0.199475 -0.766684 0.65336 -0.0477047 -0.755543 166 134 122
-0.32567 0.710158 -0.464319 0.479633 0.468083 -0.742193 78 58 50
-0.233773 -0.614064 -0.515174 0.381992 -0.784733 -0.488135 118 105 85
-0.249253 0.57145 -0.526724 0.534538 0.544781 -0.646129 107 86 68
-0.295612 0.620103 -0.52617 0.503511 0.583126 -0.637528 98 78 65
-0.0405467 -0.407641 -0.711604 0.716152 -0.535685 -0.447401 149 130 128
0.0486239 -0.190845 -0.791319 0.701368 0.350149 -0.62087 153 120 109
-0.481301 -0.75165 -0.377979 0.328171 -0.763319 -0.556461 114 102 82
-0.0987541 0.234537 -0.684528 0.615835 0.508936 -0.601442 97 53 43
-0.274735 0.565214 -0.561643 0.342017 0.603105 -0.720617 84 63 52
-0.0776292 0.163568 -0.724488 0.572509 0.530675 -0.624994 96 53 44
-0.440764 -0.705566 -0.448522 0.335203 -0.782235 -0.525118 114 103 82
-0.0226997 -0.361267 -0.784569 0.728797 -0.652556 -0.207425 128 109 107
-0.0708261 -0.0575658 -0.747181 0.798351 0.575144 -0.178453 84 29 28
-0.276368 0.486079 -0.610487 0.585191 0.550318 -0.595568 100 80 64
-0.327454 0.589341 -0.576555 0.396421 0.575053 -0.715657 110 90 73
-0.156513 -0.482299 -0.683868 0.277643 -0.776883 -0.565125 120 103 84
-0.12022 0.209658 -0.730251 0.55725 0.501035 -0.662145 115 93 74
-0.0188177 -0.277096 -0.81554 0.420783 -0.25258 -0.871289 110 74 65
-0.212594 0.335074 -0.683856 0.644927 0.544123 -0.536657 86 67 57
-0.016035 -0.0287943 -0.823961 0.694142 0.442151 -0.56804 119 70 55
-0.208455 0.319476 -0.699944 0.502747 0.639501 -0.581622 78 59 49
-0.105851 0.131967 -0.775662 0.493964 0.550628 -0.67291 109 88 72
-0.306743 0.496653 -0.62895 0.652809 0.496177 -0.572406 85 68 56
-0.290151 -0.549689 -0.634558 0.315172 -0.794801 -0.518611 100 90 75
0.0171365 -0.164435 -0.874002 0.990837 0.116312 0.0686484 133 86 70
-0.136014 0.158218 -0.780339 0.514945 0.554625 -0.653622 88 68 56
-0.179546 0.248868 -0.745554 0.384202 0.449975 -0.806171 118 99 78
-0.273654 0.412902 -0.679833 0.498327 0.410155 -0.763835 106 88 71
-0.567763 -0.704659 -0.465727 0.336934 -0.772173 -0.538725 109 98 78
-0.302903 -0.539192 -0.65699 0.317334 -0.728362 -0.607279 116 106 85
-0.0999387 -0.388388 -0.803827 0.401352 -0.832695 -0.38149 115 101 82
-0.0651765 0.0119033 -0.846219 0.583533 0.514516 -0.628302 107 88 71
-0.0958784 0.0662372 -0.82618 0.453915 0.581641 -0.675022 86 65 54
-0.10988 0.0868729 -0.815231 0.612921 0.642015 -0.460594 87 68 55
0.000364007 -0.148447 -0.900366 0.550183 0.388185 -0.739331 101 57 46
-0.171605 0.202634 -0.775012 0.368769 0.515531 -0.773458 85 63 52
-0.0512834 -0.0316182 -0.867907 0.619018 0.517241 -0.590998 113 93 74
-0.0372067 -0.0610708 -0.87652 0.665312 0.41001 -0.623901 115 93 75
-0.195176 0.210414 -0.781595 0.474892 0.586838 -0.655819 88 68 57
-0.342704 0.469452 -0.670163 0.57954 0.486128 -0.654073 106 89 72
-0.104666 -0.376348 -0.828618 0.435717 -0.78087 -0.447652 88 75 62
-0.556633 -0.68474 -0.518408 0.42269 -0.80868 -0.409108 91 81 67
-0.508451 -0.655628 -0.544214 0.335195 -0.779033 -0.52986 110 101 81
-0.298379 -0.509612 -0.702274 0.320532 -0.811368 -0.488817 84 74 63
0.0150817 -0.224452 -0.941456 0.480436 0.57971 -0.658117 92 57 45
-0.113256 -0.366426 -0.854724 0.281814 -0.780292 -0.558323 85 73 60
-0.0825694 -0.0371901 -0.894347 0.43357 0.560315 -0.705736 92 72 58
-0.130421 0.0562566 -0.853855 0.472398 0.582432 -0.661524 119 100 79
-0.207971 0.17223 -0.817573 0.595197 0.538097 -0.596819 110 93 75
-0.0263964 -0.184753 -0.947067 0.78279 0.228406 -0.578853 81 53 40
-0.326882 0.351059 -0.75361 0.471375 0.4945 -0.730257 108 92 74
-0.109197 -0.0165095 -0.902644 0.328346 0.567636 -0.754969 121 103 82
-0.37217 0.415677 -0.731163 0.511105 0.447276 -0.733973 82 66 55
-0.0924367 -0.0586283 -0.922879 0.492589 0.525619 -0.693599 116 97 78
-0.154299 0.0281704 -0.885661 0.581724 0.51195 -0.632063 109 92 74
-0.507915 0.608154 -0.665589 0.454566 0.577906 -0.677787 100 86 71
-0.170593 0.00962516 -0.908904 0.57539 0.570174 -0.586368 89 71 60
-0.322667 -0.440805 -0.810471 0.575044 -0.731108 -0.367158 107 99 79
-0.0791479 -0.286187 -0.974135 0.266817 -0.605321 -0.749931 119 109 91
-0.220066 0.0782281 -0.898364 0.42068 0.574476 -0.702144 115 100 79
-0.268687 -0.393835 -0.876365 0.343784 -0.418981 -0.840397 102 94 75
-0.300728 -0.39153 -0.881962 0.305194 -0.782884 -0.542171 84 75 60
-0.223262 -0.34663 -0.932888 0.0765619 -0.577537 -0.812766 110 100 80
-0.510851 0.468821 -0.784265 0.402366 0.503024 -0.764898 103 91 75
-0.154433 -0.277467 -1.01293 0.241843 -0.166047 -0.956002 121 115 100
-0.357923 0.185703 -0.900443 0.401855 0.547525 -0.733981 82 66 55
-0.156296 -0.128647 -1.01623 0.533534 0.341879 -0.773602 110 93 75
-0.133123 -0.204838 -1.04617 0.6266 -0.302494 -0.718241 67 43 37
-0.432406 0.2881 -0.866578 0.34063 0.508542 -0.790794 101 86 71
-0.191894 -0.105519 -1.02027 0.537184 0.448174 -0.714544 77 61 52
-0.365576 0.174254 -0.921349 0.91584 0.394436 -0.0752208 109 94 77
-0.230613 -0.0993977 -1.03321 0.249672 0.535859 -0.806548 113 100 81
0.738088 0.249552 0.307535 0.362463 -0.850226 -0.381753 184 166 156
0.721827 0.386878 0.347428 0.774581 0.42273 -0.47045 167 57 57
0.688035 0.642683 0.36951 0.925574 -0.19144 -0.326594 190 161 167
0.693204 0.407053 0.258201 0.941187 0.184244 -0.283235 192 171 170
0.669594 0.678658 0.322219 0.815053 -0.0989249 -0.570878 164 88 93
0.656077 0.671112 0.309418 0.695987 -0.0421002 -0.71682 177 139 145
0.676455 0.119828 0.226728 0.963701 0.2612 -0.0552613 189 159 148
0.583202 0.390053 0.123883 0.704656 0.052466 -0.707607 166 149 140
0.640728 0.645636 0.28167 0.785143 0.137729 -0.603805 175 155 158
0.635202 0.507905 0.256893 0.683764 -0.0798525 -0.725322 169 134 136
0.659485 0.0966273 0.146936 0.680023 -0.104924 -0.725644 166 122 102
0.609414 0.552315 0.24154 0.599062 0.146847 -0.787121 134 34 35
0.651866 0.0689336 0.128886 0.867939 0.108912 -0.484582 178 138 122
0.637843 -0.101892 0.129624 0.956067 -0.291914 0.0268577 197 168 156
0.650859 -0.0089301 0.112289 0.918157 -0.0641109 -0.390995 174 133 117
0.649894 0.0221309 0.0988769 0.923021 0.0449263 -0.382117 193 161 150
0.625854 -0.423526 0.0982454 0.75143 -0.646127 -0.133686 151 130 126
0.614494 0.167897 0.094093 0.762237 0.352478 -0.542912 170 129 112
0.553476 0.638322 0.227014 0.0385713 0.154142 -0.987295 125 20 21
0.634099 -0.0180477 0.0670014 0.985891 -0.0535563 -0.15859 194 161 150
0.629417 -0.00559072 0.0522109 0.849043 0.486872 -0.205137 187 152 139
0.641465 -0.310268 0.00888649 0.838273 -0.0131441 -0.545092 181 163 155
0.6168 0.102784 0.0650956 0.848319 0.128841 -0.513571 183 146 133
0.550192 -0.511274 0.0998949 0.588152 -0.692324 -0.418048 117 92 86
0.574233 0.439656 0.118838 0.685619 0.0790432 -0.723657 175 161 154
0.496695 -0.569909 0.146461 0.203317 -0.780852 -0.590705 75 47 42
0.518713 -0.529344 0.0962381 0.445231 -0.756761 -0.478626 160 145 141
0.597046 -0.244299 -0.0268986 0.808224 0.0959545 -0.581005 180 163 156
0.576147 -0.17593 -0.0361396 0.878913 0.111381 -0.463795 190 173 167
0.384924 0.785642 0.286572 0.449922 -0.870483 -0.199569 74 41 26
0.551505 -0.331409 -0.0722362 0.462325 -0.411935 -0.785217 169 154 146
0.463717 0.312456 0.0235879 0.563462 0.593329 -0.574867 165 136 127
0.488429 0.083994 -0.0577919 0.703407 0.085995 -0.705565 168 139 126
0.483533 0.122042 -0.046729 0.60439 0.139574 -0.784367 156 118 100
0.456848 0.181146 -0.0489779 0.432952 0.326173 -0.840335 153 114 97
0.39276 0.346914 0.00412597 0.448279 0.585861 -0.675138 154 127 117
0.274282 0.611903 0.144761 -0.0243273 -0.506712 -0.861772 108 92 87
0.407908 0.0134048 -0.0845902 0.0702179 0.311 -0.947812 167 148 140
0.385393 0.272729 -0.0411555 0.344485 0.503302 -0.792475 161 133 123
0.395186 0.0702628 -0.0738875 -0.050024 -0.308954 -0.94976 159 122 107
0.401906 -0.267536 -0.134289 0.285905 -0.291241 -0.912928 139 119 109
0.297955 -0.313081 -0.125124 0.0100411 -0.376791 -0.926244 158 142 135
0.254327 -0.0312747 -0.107993 0.532622 0.510269 -0.675233 133 98 92
0.244904 -0.111871 -0.138524 0.240809 0.0591629 -0.968768 159 134 128
0.240316 0.0463486 -0.123991 0.950762 -0.0603344 -0.303995 146 117 114
0.223102 -0.129602 -0.13738 0.367439 -0.28387 -0.885667 156 131 126
0.173383 -0.156626 -0.158304 0.128049 -0.527169 -0.840058 121 47 48
0.160243 -0.112486 -0.172867 0.611696 -0.0794194 -0.787097 158 131 131
0.205293 0.0966205 -0.215016 0.98969 -0.113276 -0.0876513 187 149 154
-0.00264005 -0.306566 -0.0151148 0.615502 -0.735406 -0.283436 146 113 121
0.104303 0.40126 -0.180355 0.489733 0.734299 -0.470071 138 19 22
-0.0577255 0.565719 -0.019072 0.893356 0.24361 -0.377582 47 18 14
-0.0612245 0.699822 -0.0127516 0.44006 -0.825556 -0.353278 58 30 22
-0.0639452 0.565528 -0.0447643 0.964788 0.257787 0.0522492 45 18 14
0.0512913 -0.20185 -0.179006 0.487282 -0.854955 -0.177784 151 133 137
0.143647 0.138055 -0.269941 0.310462 0.155092 -0.937848 162 138 142
0.106534 0.244806 -0.264312 0.320509 0.141711 -0.936586 125 22 23
-0.0648476 0.733072 -0.087776 0.449227 -0.854438 -0.261019 91 53 36
0.0730532 0.154743 -0.304577 0.75056 0.175422 -0.637092 158 113 116
-0.0699909 0.522098 -0.180281 0.860412 -0.216823 -0.461171 141 113 108
0.00516931 0.270084 -0.327639 0.114384 -0.110789 -0.987239 108 56 47
-0.0817334 0.54168 -0.25626 0.839955 0.424419 -0.338147 149 124 119
0.156707 -0.264972 -0.595727 0.817789 -0.39356 -0.419919 171 135 123
0.0121062 0.160971 -0.464107 0.900926 -0.370586 -0.225828 146 22 25
-0.0609969 -0.475759 -0.445322 0.649845 -0.756863 -0.0697147 171 137 128
0.144854 -0.220536 -0.656263 0.688003 -0.11719 -0.716184 173 138 126
-0.138846 -0.576622 -0.4093 0.940867 -0.0583742 -0.333707 124 86 75
-0.254171 0.738102 -0.319092 0.9452 0.308343 -0.107337 36 19 14
0.117358 -0.315533 -0.655343 0.76717 -0.53971 -0.346646 185 156 148
-0.022269 0.0789074 -0.540513 0.81461 -0.201664 -0.543821 133 36 39
-0.232009 -0.662752 -0.371819 0.131524 -0.467463 -0.874174 132 119 100
-0.0512762 -0.480133 -0.535087 0.903487 -0.416848 0.09974 148 114 106
0.115781 -0.227951 -0.715094 0.641963 0.394294 -0.657582 172 137 124
0.0419774 -0.396612 -0.656372 0.710659 -0.681733 -0.173795 174 151 147
-0.195455 -0.608845 -0.483849 0.487528 -0.818749 -0.30326 116 100 81
-0.0507398 0.229289 -0.606369 0.9184 0.358963 -0.166393 135 92 82
0.0854326 -0.235809 -0.75358 0.763657 0.516417 -0.38748 180 154 146
-0.110042 -0.517995 -0.608008 0.368544 -0.830442 -0.417783 101 85 71
0.0581008 -0.316808 -0.772304 0.811396 -0.340861 -0.474816 165 140 133
0.0701567 -0.247576 -0.794607 0.507936 -0.0158012 -0.86125 151 121 111
-0.411227 -0.705377 -0.437474 0.348512 -0.788338 -0.507014 94 83 69
-0.0875462 -0.432017 -0.723912 0.618578 -0.732162 -0.28513 99 75 61
-0.0262741 -0.366877 -0.763465 0.722909 -0.663232 -0.193718 150 133 129
-0.163096 0.314452 -0.675709 0.524356 0.513976 -0.67888 117 96 76
-0.219072 0.406983 -0.636617 0.571424 0.486326 -0.661031 107 87 69
-0.546718 -0.770576 -0.372854 0.341757 -0.772965 -0.534535 91 81 68
-0.365915 0.669769 -0.533072 0.471437 0.666178 -0.577888 108 89 72
-0.251956 -0.552497 -0.600401 0.335056 -0.778024 -0.531429 116 106 86
0.0291418 -0.218205 -0.829478 0.730826 0.0167438 -0.682358 114 78 69
-0.149552 0.278054 -0.690534 0.535647 0.59301 -0.601182 105 84 66
-0.012593 -0.326723 -0.804965 0.698573 -0.448715 -0.557361 73 44 39
-0.15352 -0.460644 -0.73137 0.288582 -0.812596 -0.506367 95 81 67
-0.374373 0.639944 -0.575026 0.570007 0.0998727 -0.815548 83 65 56
-0.22534 0.334537 -0.700618 0.653096 0.472054 -0.592141 96 78 63
-0.135091 0.175042 -0.770767 0.452192 0.518468 -0.72575 91 71 58
-0.34158 0.532392 -0.629355 0.351125 0.631779 -0.691062 108 89 71
-0.112302 0.114399 -0.804315 0.611626 0.456484 -0.646169 103 82 68
-0.0758105 -0.382065 -0.810771 0.354657 -0.763487 -0.539727 120 106 85
-0.235692 0.302125 -0.73237 0.509744 0.618301 -0.598217 115 96 77
-0.232057 -0.468139 -0.744729 0.29308 -0.76035 -0.579631 117 105 84
-0.386115 0.511962 -0.670368 0.667944 0.382021 -0.638679 81 67 57
-0.137258 0.0684225 -0.854604 0.659509 0.558333 -0.503301 113 96 76
-0.301663 0.338603 -0.75462 0.369488 0.47192 -0.800481 113 95 74
-0.433061 0.553137 -0.676964 0.414754 0.497915 -0.761616 108 91 74
-0.265888 0.242652 -0.796289 0.45662 0.559084 -0.692043 113 96 75
-0.175273 0.0755845 -0.863906 0.534051 0.566056 -0.62799 114 97 77
-0.208564 0.126687 -0.854502 0.514861 0.515428 -0.685019 116 98 80
-0.241866 0.185482 -0.831803 0.655484 0.390662 -0.646316 84 68 55
-0.113145 -0.0293483 -0.910509 0.489481 0.510733 -0.706795 115 98 77
-0.529756 0.684046 -0.64574 0.350436 0.59133 -0.726308 104 89 73
-0.300016 -0.451692 -0.793647 0.297839 -0.74498 -0.596906 111 100 80
-0.18759 0.0356402 -0.899004 0.480348 0.504203 -0.717666 82 62 52
-0.547395 0.616703 -0.682872 0.558974 0.615957 -0.555108 75 63 55
-0.250263 -0.387664 -0.866695 0.117013 -0.494751 -0.861121 112 102 81
-0.159679 -0.0223473 -0.937329 0.472821 0.547441 -0.69047 95 76 64
-0.535501 0.596749 -0.706209 0.387367 0.629335 -0.67371 81 70 61
-0.232961 0.0714732 -0.913361 0.350801 0.613011 -0.707923 118 101 81
-0.0917732 -0.206114 -1.01168 0.591344 -0.148055 -0.792712 64 38 30
-0.209189 0.0239196 -0.93277 0.390907 0.527815 -0.754057 119 103 82
-0.196597 -0.0328628 -0.962575 0.375529 0.657506 -0.653195 118 101 81
-0.210174 -0.00423506 -0.957094 0.373693 0.5819 -0.72232 115 99 79
-0.193655 -0.0732497 -0.990035 0.605608 0.539397 -0.585056 107 91 73
-0.413698 0.274565 -0.867188 0.272841 0.515168 -0.812501 112 98 80
-0.323043 0.128516 -0.924765 0.437076 0.506843 -0.743018 86 69 57
-0.305931 0.0536902 -0.965763 0.38088 0.510692 -0.770795 116 102 83
-0.241909 -0.0828743 -1.02851 0.280383 0.377153 -0.882689 114 99 80
-0.268492 -0.074183 -1.02962 0.298543 0.407521 -0.863017 108 86 73
0.693083 0.110259 0.30699 0.900707 -0.430648 -0.0571862 174 153 142
0.697948 0.523747 0.32134 0.864982 0.0735014 -0.496392 142 18 20
0.657316 0.793758 0.344612 0.431411 0.591384 -0.681284 148 132 137
0.675614 0.0941929 0.22473 0.966641 -0.211527 -0.14444 196 165 155
0.687623 -0.37576 0.150318 0.962106 0.0131299 -0.272358 98 61 53
0.631499 0.664022 0.276353 0.631288 0.233905 -0.739436 165 143 145
0.637181 0.589046 0.268171 0.554255 0.313065 -0.771227 153 70 70
0.651257 0.107709 0.135432 0.826438 0.0899462 -0.555797 172 130 111
0.640151 -0.110935 0.107776 0.968481 0.120449 -0.218027 194 168 158
0.492114 0.92774 0.425642 0.141517 0.369996 -0.918192 146 130 134
0.641879 -0.294081 0.0114304 0.754114 -0.0968392 -0.649564 181 163 155
0.606971 -0.205472 -0.00919565 0.670307 0.195886 -0.715764 113 84 73
0.510175 -0.0148395 -0.0711463 0.514245 0.401548 -0.757833 167 149 142
0.424968 -0.190119 -0.158368 0.633022 -0.121049 -0.76461 169 153 147
0.326116 -0.32253 -0.126718 -0.106804 -0.261348 -0.959318 168 156 150
0.247293 -0.387383 -0.0749152 -0.199292 -0.442198 -0.874495 167 156 152
0.231799 -0.144998 -0.124097 0.25508 -0.405196 -0.877924 162 140 134
0.243582 0.0734472 -0.133426 0.900815 -0.20417 -0.383206 148 122 119
0.229284 0.139545 -0.139136 0.651343 0.0714006 -0.755416 105 16 18
0.14303 0.372122 -0.0619711 0.943735 0.329899 0.0230104 145 86 89
0.029158 0.73418 0.00898767 0.506905 -0.826022 -0.246445 86 49 32
0.166995 -0.0950943 -0.174487 0.506383 -0.13681 -0.851386 157 135 135
0.185752 0.00227561 -0.177 0.632957 -0.166786 -0.756007 96 10 13
0.204871 0.142122 -0.209779 0.963383 0.0324513 -0.266156 190 172 177
-0.207796 -0.459834 0.177386 0.66314 -0.702622 -0.258008 135 28 30
-0.0711299 -0.392822 0.0379229 0.196418 -0.659893 -0.725232 73 9 13
0.170973 0.239998 -0.213399 0.704704 0.211568 -0.677223 114 13 17
0.115893 -0.109007 -0.21505 0.449354 -0.568223 -0.689351 115 20 22
-0.0506423 -0.322066 -0.045166 0.454057 -0.811403 -0.368046 151 131 136
0.0668895 -0.174981 -0.203033 0.286624 -0.587888 -0.756463 152 124 129
0.122774 0.087197 -0.274262 0.333762 0.0423039 -0.941708 123 18 19
0.0509004 0.14306 -0.353365 0.755993 -0.379518 -0.53333 127 16 19
0.118884 -0.106194 -0.610632 0.915941 0.326934 -0.232737 182 154 147
-0.0966707 0.446166 -0.443709 0.454576 0.55284 -0.698376 154 123 110
-0.22209 -0.684805 -0.353882 0.161272 -0.673532 -0.721351 110 77 62
-0.116917 -0.587021 -0.496851 0.437174 -0.788557 -0.432501 128 109 86
-0.0483272 0.0126706 -0.579495 0.604533 -0.0257086 -0.796165 158 126 128
0.0831756 -0.339885 -0.695318 0.768318 -0.605643 -0.207085 175 145 137
-0.0463028 0.0839556 -0.595686 0.835785 -0.318939 -0.446923 123 18 21
-0.0269599 -0.441369 -0.633569 0.800292 -0.5853 -0.130216 130 101 95
-0.0944602 -0.0178314 -0.629781 0.245595 0.744537 -0.620764 114 16 18
-0.269168 0.605634 -0.509022 0.558112 0.619721 -0.551776 88 67 54
-0.294783 0.655966 -0.501473 0.402483 0.578527 -0.709447 82 61 52
-0.114415 -0.480264 -0.666127 0.32524 -0.793177 -0.514868 124 110 88
-0.351707 0.711718 -0.493865 0.459332 0.609121 -0.646518 110 89 72
-0.109177 0.236324 -0.700269 0.695706 0.504424 -0.51142 95 61 50
0.0273962 -0.236515 -0.808261 0.42221 -0.0495359 -0.905144 154 125 116
-0.32096 0.597321 -0.552297 0.472715 0.614817 -0.631301 108 89 70
-0.57854 -0.791998 -0.358001 0.366722 -0.778175 -0.509862 90 82 69
-0.0199684 -0.145107 -0.787333 0.649546 0.61461 -0.447597 116 71 55
-0.134158 0.206362 -0.744156 0.477029 0.457101 -0.750668 113 92 72
-0.23862 0.371512 -0.67695 0.667276 0.555549 -0.496094 92 72 60
-0.279158 0.460704 -0.648828 0.40436 0.627984 -0.664928 86 66 56
-0.0890917 -0.396215 -0.793342 0.325291 -0.813088 -0.482777 120 106 85
-0.059828 -0.00291375 -0.861952 0.370124 0.522443 -0.768154 96 74 58
-0.189074 0.160131 -0.806692 0.48359 0.526697 -0.699093 115 97 77
-0.489833 0.701702 -0.586811 0.499092 0.542984 -0.675334 85 69 59
-0.200103 -0.501202 -0.671919 0.300029 -0.78457 -0.542616 111 98 82
0.014552 -0.248166 -0.966317 0.212768 -0.535113 -0.817547 104 70 55
-0.0708571 -0.304578 -0.930283 0.270762 -0.752645 -0.600177 116 104 82
-0.169682 0.00965656 -0.908978 0.534864 0.581872 -0.612655 88 70 59
-0.140613 -0.0498201 -0.94971 0.445391 0.618828 -0.647054 112 94 77
-0.593954 0.692302 -0.663875 0.368106 0.550222 -0.749502 81 69 61
-0.224596 0.0357571 -0.936935 0.296959 0.616921 -0.728851 116 100 81
-0.144755 -0.111359 -0.993829 0.575498 0.484028 -0.65918 116 100 79
-0.434603 0.308598 -0.856667 0.433138 0.470601 -0.768718 101 87 73
-0.27838 0.0173491 -0.986728 0.312916 0.136935 -0.939858 114 99 79
-0.323341 0.0484819 -0.979145 0.482125 0.543169 -0.687403 106 84 70
-0.226641 -0.120266 -1.04486 0.263309 0.552991 -0.790487 116 101 81
0.677099 0.775369 0.352292 0.421068 0.655619 -0.626789 182 167 172
0.68626 0.583978 0.315608 0.705972 0.295762 -0.643528 169 142 145
0.681284 -0.395032 0.151793 0.817296 -0.567796 -0.0981573 79 45 38
0.576617 -0.266516 -0.0643946 0.590487 0.150104 -0.792965 171 154 146
0.478445 -0.524822 0.0235245 0.27119 -0.768909 -0.578996 171 160 156
0.418615 0.189483 -0.0635917 0.476885 0.206883 -0.854272 160 128 115
0.105348 0.697781 0.145281 0.520985 -0.709077 -0.475167 75 41 27
0.135287 0.321357 -0.218186 0.618263 0.512426 -0.595962 172 158 163
0.126443 -0.0288113 -0.260238 0.667018 -0.329346 -0.668295 173 160 164
0.112705 0.166224 -0.282777 0.562093 0.155279 -0.812367 138 108 111
0.0415432 -0.114009 -0.247975 0.397443 -0.796696 -0.455318 121 45 49
0.0767197 -0.0128073 -0.355532 0.97728 0.117135 0.176641 169 31 34
0.158936 -0.114279 -0.497861 0.938566 0.343434 0.0338555 197 168 158
-0.229631 -0.686857 -0.22521 0.672937 -0.689433 -0.268026 179 151 141
-0.0676239 0.496734 -0.367236 0.660508 0.642127 -0.389106 191 167 161
0.141972 -0.191394 -0.668253 0.667276 -0.19134 -0.719814 168 135 125
-0.259688 0.693199 -0.419192 0.615884 0.548551 -0.56549 86 49 42
-0.213463 0.51757 -0.541053 0.603056 0.566741 -0.561363 109 83 66
-0.135161 0.264591 -0.686974 0.554512 0.54454 -0.62928 108 83 65
-0.242024 0.455246 -0.607116 0.558614 0.529617 -0.638322 109 89 70
-0.0912371 0.120875 -0.774481 0.62001 0.549534 -0.56 112 90 72
-0.479247 0.681123 -0.601471 0.486016 0.527473 -0.696822 81 66 56
-0.314731 0.231622 -0.843428 0.260893 0.515345 -0.816305 112 97 77
-0.461759 0.461079 -0.74752 0.566455 0.433331 -0.700967 101 87 72
-0.547377 0.502167 -0.772927 0.29164 0.529592 -0.796542 100 84 71
-0.360949 0.157517 -0.936915 0.591791 0.694222 -0.409683 108 90 75
-0.397378 0.183814 -0.919022 0.350799 0.424306 -0.834807 101 75 63
-0.357541 0.13594 -0.944344 0.441433 0.344191 -0.828655 109 89 75
0.747617 0.187865 0.39259 0.965414 -0.0424438 -0.257242 199 183 175
0.689808 0.631473 0.389216 0.991244 -0.0918143 -0.0948978 179 145 151
0.589941 0.79048 0.315067 0.393849 0.435246 -0.809595 59 22 18
0.581098 -0.541135 0.140739 0.554061 -0.625118 -0.549767 61 35 30
0.48459 0.837524 0.332095 0.559902 0.462052 -0.687764 66 40 31
0.669385 -0.352509 0.0820973 0.876254 -0.314318 -0.365216 190 175 171
0.0946767 0.745443 0.0674694 0.436283 -0.842776 -0.315255 86 49 33
0.26367 -0.217774 -0.155933 -0.203132 -0.29053 -0.935057 167 148 144
0.221125 0.00461699 -0.145565 0.727662 -0.101784 -0.678342 112 14 16
0.0857976 0.0692915 -0.29733 0.964578 -0.159507 -0.210113 139 80 82
0.0721745 -0.0944214 -0.669505 0.623553 0.770084 -0.134733 173 145 138
0.0415293 -0.353429 -0.734143 0.461255 -0.735786 -0.495846 171 144 136
-0.246519 0.220318 -0.807801 0.5001 0.562662 -0.658264 115 98 76
-0.424089 0.668469 -0.577396 0.355177 0.61197 -0.706642 104 85 71
-0.336272 0.112109 -0.942436 0.402126 0.593439 -0.697227 110 94 79
0.74853 0.215765 0.354811 0.94089 -0.196634 -0.275793 189 174 166
0.687945 0.720669 0.356664 0.918504 -0.0489462 -0.392371 155 54 56
0.519629 0.498792 0.0922585 0.413714 0.283549 -0.865125 154 141 133
0.470654 -0.0467483 -0.102512 0.443523 0.154901 -0.882776 158 141 133
0.256045 -0.178005 -0.137801 -0.0606149 -0.521347 -0.85119 162 143 136
-0.184504 -0.405686 0.0665273 0.673065 -0.736576 -0.0666397 105 40 41
-0.136477 0.675316 -0.0421862 0.423793 -0.796378 -0.431486 66 33 20
0.141898 -0.105299 -0.558559 0.405818 0.803663 -0.435245 198 171 162
-0.102617 0.195818 -0.728056 0.664336 0.4901 -0.564321 107 79 63
-0.242665 0.172831 -0.843257 0.391655 0.579609 -0.714604 108 90 75
0.498907 0.766495 0.279016 -0.133825 -0.128103 -0.98269 52 24 15
0.583933 0.131418 0.0367414 0.677218 0.19811 -0.70861 159 117 99
0.457945 -0.0912274 -0.117649 0.433294 0.157261 -0.887426 159 143 133
-0.0798938 0.392741 -0.432628 0.83313 -0.0728404 -0.548259 162 130 119
-0.075196 0.0720039 -0.686611 0.906443 -0.0646293 -0.417353 161 135 136
0.612686 -0.128713 0.00312287 0.766107 -0.357079 -0.534391 177 156 146
0.439114 -0.183949 -0.14768 0.71633 -0.0723036 -0.694006 168 152 146
0.175713 -0.00503325 -0.190178 0.669784 -0.31569 -0.672108 113 19 21
