ply
format ascii 1.0
element vertex 293
property float x
property float y
property float z
property float nx
property float ny
property float nz
property uchar diffuse_red
property uchar diffuse_green
property uchar diffuse_blue
end_header
0.501703 0.264436 0.77979 0.901901 0.086983 0.423095 179 126 135
0.619356 0.188631 0.649335 0.866708 -0.201637 0.456245 201 183 181
0.625247 0.24209 0.63701 0.87134 0.17548 0.458227 162 59 61
0.528364 0.657997 0.661495 0.901022 0.213331 0.377688 157 45 51
0.662571 0.664697 0.558926 0.88966 0.172683 0.422713 186 137 144
0.661801 0.248073 0.558016 0.879885 0.257913 0.399104 199 179 177
0.693767 0.629945 0.495773 0.929871 0.230201 0.286962 157 37 40
0.73887 0.293444 0.470252 0.524002 -0.788469 -0.322085 187 147 150
0.744634 0.339952 0.441612 0.965827 0.0927256 -0.242031 166 36 38
0.704113 0.555423 0.466781 0.986192 -0.152816 0.0638118 190 164 169
0.692279 0.760069 0.449725 0.935029 0.205198 0.289163 191 170 176
0.757588 0.290682 0.404906 0.982698 0.136633 -0.125044 196 178 175
0.728491 0.501525 0.399934 0.993685 -0.0874471 0.0703104 147 37 41
0.703639 0.71001 0.395026 0.945213 0.226596 -0.235004 164 59 62
0.720039 0.548886 0.370317 0.959533 -0.26611 -0.0920989 178 108 111
0.704093 0.591771 0.390095 0.920699 0.38994 0.0160938 188 166 169
0.728896 0.433861 0.381137 0.971573 0.23643 -0.0121144 192 158 162
0.538168 0.909138 0.421307 0.340198 0.28944 -0.894701 122 71 74
0.741828 0.324616 0.347907 0.954751 0.230259 -0.188232 192 171 167
0.688054 0.693876 0.359206 0.823153 -0.132458 -0.552154 149 28 32
0.690097 0.673635 0.346559 0.82384 -0.258746 -0.504318 151 44 47
0.721827 0.386878 0.347428 0.774581 0.42273 -0.47045 167 57 57
0.681801 0.706573 0.341295 0.884747 0.0822052 -0.458765 140 20 23
0.67735 0.645374 0.334295 0.890044 -0.12941 -0.437121 186 163 167
0.576114 -0.230744 0.379526 0.921251 -0.221121 0.320003 203 186 182
0.705133 0.372246 0.300899 0.900992 -0.062708 -0.42928 196 176 173
0.674598 0.528869 0.295883 0.722793 -0.0826619 -0.686103 132 17 19
0.648829 0.614589 0.289345 0.762167 0.160008 -0.627295 133 94 90
0.70787 0.380428 0.281379 0.994769 0.0851892 0.056368 187 168 166
0.672405 -0.389266 0.314848 0.86258 -0.38309 0.330448 185 168 165
0.69849 0.276377 0.24747 0.840468 -0.229673 -0.490778 190 174 166
0.604501 0.591486 0.249844 0.509834 0.221327 -0.831314 134 25 25
0.344831 0.884481 0.358249 0.229171 0.333552 -0.914453 118 90 90
0.611685 -0.0720732 0.262351 0.901362 -0.255249 0.349849 182 152 143
0.667554 0.390382 0.204261 0.647313 0.176947 -0.741401 190 175 169
0.569281 0.65351 0.234754 0.176104 0.316747 -0.932019 144 77 79
0.709114 -0.33909 0.204034 0.780452 -0.606024 -0.153721 190 173 169
0.631082 -0.0828125 0.229545 0.921478 -0.0821756 0.379639 186 154 144
0.579251 0.525378 0.16282 0.793235 0.54352 -0.274529 183 169 169
0.565856 0.544128 0.162715 0.695381 0.593226 -0.405619 178 165 165
0.62543 0.272372 0.155011 0.494532 -0.0717588 -0.866192 169 150 139
0.661486 0.0201147 0.13852 0.876695 -0.0503914 -0.478399 172 130 112
0.648728 -0.0609902 0.123609 0.725498 -0.307726 -0.615595 188 153 140
0.671439 -0.40313 0.130529 0.970504 0.119543 -0.209358 72 42 35
0.650859 -0.0089301 0.112289 0.918157 -0.0641109 -0.390995 174 133 117
0.602504 0.201639 0.103145 0.706509 0.399815 -0.583946 177 142 130
0.635607 -0.43791 0.109579 0.705758 -0.53091 -0.469085 75 44 39
0.539325 0.364628 0.0957706 0.411244 0.0998583 -0.906039 161 145 135
0.641206 -0.0243786 0.0773862 0.912805 -0.328394 0.242788 184 148 135
0.567381 0.252919 0.0937853 0.676152 0.451955 -0.581855 168 133 119
0.657276 -0.371388 0.0859942 0.842629 -0.330235 -0.425349 186 172 169
0.629451 -0.0919384 0.070929 0.90691 0.370291 -0.200994 195 172 164
0.593175 0.173246 0.0646462 0.780726 0.444449 -0.439241 179 146 135
0.541377 0.267779 0.0742562 0.73226 0.419935 -0.536143 158 119 103
0.529515 0.291632 0.069902 0.876837 0.126364 -0.463887 175 145 134
0.629688 -0.0287729 0.047799 0.555392 -0.365337 -0.747041 194 163 152
0.597239 -0.0450902 0.0132261 0.699597 -0.244489 -0.671409 167 135 120
0.505218 0.271574 0.0344999 0.722153 0.304789 -0.620965 160 124 109
0.0984046 0.587147 0.151469 0.765731 0.640275 -0.0608669 36 18 14
0.578448 -0.0569502 -0.0154934 0.806982 0.354495 -0.472348 180 160 151
0.597046 -0.244299 -0.0268986 0.808224 0.0959545 -0.581005 180 163 156
0.409672 0.35126 0.0188281 0.481508 0.626882 -0.61251 154 126 116
0.496617 0.16551 -0.0252234 0.600793 0.313921 -0.735187 163 128 114
0.504249 0.0519524 -0.0294886 0.443536 -0.285416 -0.849596 150 115 96
0.46912 0.188857 -0.0376336 0.521355 0.492018 -0.697214 149 109 92
0.529919 -0.037038 -0.0620307 0.769733 0.279018 -0.57416 176 159 151
0.488429 0.083994 -0.0577919 0.703407 0.085995 -0.705565 168 139 126
0.555382 -0.252223 -0.0796614 0.502205 0.473598 -0.723529 169 153 146
0.385393 0.272729 -0.0411555 0.344485 0.503302 -0.792475 161 133 123
0.516967 -0.230958 -0.0910184 0.474325 0.133945 -0.870101 120 96 84
0.507415 -0.117158 -0.098506 0.35396 0.283615 -0.891221 159 141 130
0.00119806 0.547295 0.0216129 0.403222 0.712784 -0.573892 65 30 28
0.482287 -0.260795 -0.113328 0.386025 0.225264 -0.894561 157 141 132
-0.0612245 0.699822 -0.0127516 0.44006 -0.825556 -0.353278 58 30 22
0.438657 -0.201725 -0.150332 0.759181 -0.202512 -0.618574 170 155 148
0.408902 -0.250512 -0.136804 0.422793 -0.416022 -0.805091 110 84 75
0.214605 0.0840074 -0.158715 0.775786 0.122566 -0.618977 145 110 109
0.209266 0.187698 -0.159691 0.982946 0.0662275 -0.171551 138 20 23
0.199751 0.25459 -0.14967 0.991364 0.127969 -0.0286396 176 146 151
0.198026 -0.080384 -0.159873 0.38932 0.0308355 -0.920586 152 128 126
0.160243 -0.112486 -0.172867 0.611696 -0.0794194 -0.787097 158 131 131
0.185752 0.00227561 -0.177 0.632957 -0.166786 -0.756007 96 10 13
0.183466 0.20978 -0.211858 0.616554 0.355003 -0.702732 111 13 17
-0.0479588 0.550267 -0.168272 0.815314 -0.303687 -0.492988 50 25 18
0.0830586 0.375342 -0.215843 0.333755 0.486663 -0.807321 148 49 51
0.140916 0.179853 -0.259774 0.641743 0.140927 -0.75386 173 152 156
0.106534 0.244806 -0.264312 0.320509 0.141711 -0.936586 125 22 23
-0.0716964 0.586924 -0.231938 0.695677 0.469289 -0.543877 49 25 16
0.143647 0.138055 -0.269941 0.310462 0.155092 -0.937848 162 138 142
-0.0846053 0.559574 -0.240243 0.892408 0.286045 -0.348979 67 42 36
0.0908646 0.199253 -0.283861 0.515567 0.0835263 -0.852768 144 111 112
0.074865 -0.0757869 -0.279144 0.725091 -0.536188 -0.432139 127 33 37
0.0788497 0.133051 -0.304557 0.803657 0.307029 -0.509774 157 112 114
-0.110628 0.548308 -0.290598 0.701797 0.625962 -0.340076 156 131 127
0.0891641 0.0836432 -0.314514 0.993957 0.101183 -0.0425697 163 105 109
0.00623404 0.336836 -0.312473 0.805269 0.194986 -0.55993 170 136 127
0.0462591 0.209692 -0.331862 0.782593 0.618108 -0.0740846 145 25 27
-0.123973 0.545215 -0.33077 0.756904 0.537467 -0.371787 163 136 129
0.076127 -0.142673 -0.351402 0.759915 0.486949 0.430591 186 154 145
0.0767197 -0.0128073 -0.355532 0.97728 0.117135 0.176641 169 31 34
0.0539138 0.159192 -0.360856 0.840371 -0.393845 -0.372374 130 21 24
0.0637952 0.101931 -0.364765 0.747176 0.586652 -0.312358 147 24 27
0.0790866 0.00381768 -0.370652 0.990121 0.117157 0.0770282 165 26 30
-0.255119 0.714178 -0.328065 0.966167 0.165813 0.197557 57 29 22
0.13966 -0.193209 -0.390359 0.839376 0.431926 0.329981 185 153 144
-0.236864 0.677683 -0.377701 0.977205 0.152186 0.148019 108 59 46
0.0379189 0.0884054 -0.416214 0.738195 0.578071 -0.347712 180 157 162
-0.152846 -0.62116 -0.365137 0.753461 -0.320129 -0.574293 150 119 110
-0.191893 0.566136 -0.401442 0.554596 0.705525 -0.441201 138 109 103
-0.0885353 0.262818 -0.433144 0.466008 0.856495 -0.221929 117 69 57
0.057666 -0.00236518 -0.478018 0.807839 0.353791 -0.471409 179 150 153
0.0696666 -0.0406274 -0.490703 0.758455 0.621879 -0.194973 179 147 141
-0.147796 0.443534 -0.470019 0.872468 0.411291 -0.263894 160 132 125
0.00762566 0.118494 -0.498714 0.999051 0.0434279 -0.0034109 115 12 16
-0.0946887 0.290535 -0.482446 0.907199 0.391059 -0.155123 164 124 114
0.00351973 0.0361666 -0.515629 0.785818 0.527325 -0.323138 146 23 26
-0.287071 0.643426 -0.491147 0.605268 0.544233 -0.580914 88 68 57
0.00535788 0.00146727 -0.537778 0.644153 0.215547 -0.733898 111 19 21
-0.249253 0.57145 -0.526724 0.534538 0.544781 -0.646129 107 86 68
-0.365915 0.669769 -0.533072 0.471437 0.666178 -0.577888 108 89 72
0.16791 -0.189147 -0.634284 0.819571 -0.0776717 -0.567689 182 154 146
-0.242024 0.455246 -0.607116 0.558614 0.529617 -0.638322 109 89 70
-0.0294773 -0.447332 -0.612957 0.762496 -0.629228 -0.150569 132 101 94
-0.0366737 0.130772 -0.625903 0.797025 -0.010215 -0.603861 141 16 19
-0.479247 0.681123 -0.601471 0.486016 0.527473 -0.696822 81 66 56
-0.0269599 -0.441369 -0.633569 0.800292 -0.5853 -0.130216 130 101 95
0.0244195 -0.412508 -0.648909 0.652163 -0.621364 -0.434269 165 143 138
-0.306743 0.496653 -0.62895 0.652809 0.496177 -0.572406 85 68 56
-0.300296 0.459816 -0.656644 0.481713 0.541737 -0.68882 106 88 71
0.115781 -0.227951 -0.715094 0.641963 0.394294 -0.657582 172 137 124
-0.109177 0.236324 -0.700269 0.695706 0.504424 -0.51142 95 61 50
-0.304151 0.421534 -0.685393 0.472723 0.58396 -0.659943 110 92 73
-0.319793 0.414406 -0.699695 0.474749 0.377568 -0.79502 111 94 75
-0.252922 0.317883 -0.730476 0.479337 0.556738 -0.678439 113 95 76
-0.460147 0.477877 -0.734791 0.513727 0.550383 -0.658151 100 87 72
0.0657984 -0.266385 -0.794836 0.485931 -0.0786859 -0.870448 159 135 127
-0.00411754 -0.157319 -0.786472 0.535339 0.687763 -0.4903 125 82 66
-0.0226814 0.018812 -0.78743 0.903257 -0.167237 0.39517 126 73 58
-0.189074 0.160131 -0.806692 0.48359 0.526697 -0.699093 115 97 77
-0.00434054 -0.173806 -0.819997 0.568784 0.473082 -0.672813 102 56 42
0.0119672 -0.180666 -0.858236 0.912913 0.136474 0.384661 125 79 62
-0.175273 0.0755845 -0.863906 0.534051 0.566056 -0.62799 114 97 77
-0.334183 0.200133 -0.864252 0.542176 0.770771 -0.334599 107 94 77
0.000364007 -0.148447 -0.900366 0.550183 0.388185 -0.739331 101 57 46
-0.197007 0.0119477 -0.926006 0.624987 0.560521 -0.543331 107 91 74
0.597618 0.250969 0.69464 0.84879 0.202489 0.488419 193 164 169
0.604139 0.347465 0.635653 0.935786 0.234865 0.262948 192 139 145
0.509692 0.550119 0.66937 0.85176 0.174369 0.494066 168 69 72
0.599258 0.419596 0.605601 0.889089 0.246225 0.385867 169 48 52
0.702027 0.813614 0.448651 0.995898 0.0894836 0.0134503 151 31 35
0.683607 0.694062 0.457164 0.971813 -0.0293455 0.23392 170 91 93
0.725107 0.394793 0.436982 0.982001 -0.177775 0.0637954 182 113 115
0.718097 0.466127 0.414758 0.885442 -0.395685 0.243773 195 161 166
0.694829 0.700994 0.419521 0.96009 0.270952 0.0693691 163 54 56
0.722829 0.405849 0.400784 0.99204 0.12583 0.00472213 166 63 64
0.547307 -0.15426 0.478983 0.927262 -0.339708 0.157431 185 154 144
0.579749 -0.138081 0.449086 0.895629 -0.341247 0.285305 192 159 147
0.695834 0.451379 0.332026 0.902966 0.00449082 -0.429688 192 172 175
0.656179 0.776188 0.335836 0.559679 0.533755 -0.633928 164 146 150
0.625909 -0.0790753 0.374935 0.883259 -0.4688 -0.00897797 193 165 157
0.682869 0.0698856 0.309285 0.998917 -0.0377759 0.0271846 175 142 129
0.703933 0.39512 0.272857 0.958913 0.277004 -0.061281 192 172 171
0.619069 0.706245 0.279328 0.500815 0.468157 -0.72802 126 38 40
0.649706 0.514617 0.268114 0.746012 -0.0259985 -0.665425 160 95 98
0.609414 0.552315 0.24154 0.599062 0.146847 -0.787121 134 34 35
0.678816 -0.397644 0.262348 0.861149 -0.507318 -0.0323991 100 64 56
0.566513 0.569115 0.221108 0.504816 0.250236 -0.826161 146 113 113
0.621452 -0.519214 0.235124 0.773702 -0.324191 -0.544322 79 48 44
0.674219 -0.009483 0.154644 0.950166 0.182013 -0.253093 189 154 141
0.645095 0.0732399 0.111459 0.909989 0.0738372 -0.408005 185 148 134
0.574233 0.439656 0.118838 0.685619 0.0790432 -0.723657 175 161 154
0.614494 0.167897 0.094093 0.762237 0.352478 -0.542912 170 129 112
0.625854 -0.423526 0.0982454 0.75143 -0.646127 -0.133686 151 130 126
0.6168 0.102784 0.0650956 0.848319 0.128841 -0.513571 183 146 133
0.656656 -0.213055 0.030517 0.843539 -0.0126956 -0.536918 182 162 153
0.592491 0.0782487 0.0209642 0.625416 0.288003 -0.725196 159 117 98
0.532109 0.17868 0.00903809 0.489743 0.642997 -0.588819 163 121 102
0.511337 0.13691 -0.0239162 0.62572 0.196777 -0.75482 166 128 113
0.574575 -0.17843 -0.0476421 0.889467 0.131735 -0.4376 186 169 164
0.0542792 0.717405 0.0780906 0.368389 -0.833759 -0.411259 65 34 24
0.512479 0.00192831 -0.0676962 0.557211 0.377068 -0.739821 171 150 142
0.427064 -0.247235 -0.13102 0.386962 -0.114091 -0.915011 108 84 74
0.240316 0.0463486 -0.123991 0.950762 -0.0603344 -0.303995 146 117 114
0.197311 0.24353 -0.170993 0.887911 -0.119516 -0.444219 160 76 82
0.118987 -0.172119 -0.161757 0.584986 -0.736373 -0.33992 125 24 26
-0.161821 -0.498445 -0.086294 0.733458 0.629025 0.257617 149 110 98
0.179358 0.200197 -0.221769 0.63379 0.234719 -0.737032 122 35 39
-0.157113 0.716806 -0.167452 0.500403 -0.819001 -0.280774 86 49 32
-0.136858 -0.47002 -0.157093 0.970143 -0.239131 -0.0404856 176 141 130
-0.0581417 0.525897 -0.222761 0.857837 0.108865 -0.502258 156 130 125
0.0111777 0.337181 -0.294408 0.829014 0.0966811 -0.550808 168 133 122
-0.144162 -0.517947 -0.25664 0.851438 -0.385374 -0.355724 168 132 120
0.0999466 -0.291748 -0.338952 0.757778 0.261941 0.597628 178 142 129
-0.218308 0.62686 -0.369523 0.922928 0.204541 -0.326139 42 22 14
-0.168289 0.388247 -0.52343 0.634045 0.398686 -0.662597 134 90 77
0.188195 -0.199836 -0.572407 0.961338 0.0462636 -0.271457 190 160 151
0.0237009 -0.436996 -0.569009 0.721948 -0.691624 -0.0211454 166 136 127
-0.337608 0.612041 -0.557113 0.523086 0.584032 -0.620716 105 85 68
-0.0483272 0.0126706 -0.579495 0.604533 -0.0257086 -0.796165 158 126 128
-0.0437321 0.0765857 -0.587153 0.890928 -0.340322 -0.300714 111 28 31
-0.237071 0.437248 -0.62226 0.525615 0.602687 -0.600414 100 80 64
0.0419774 -0.396612 -0.656372 0.710659 -0.681733 -0.173795 174 151 147
0.131245 -0.174061 -0.674717 0.901878 0.196696 -0.384612 166 130 117
-0.163096 0.314452 -0.675709 0.524356 0.513976 -0.67888 117 96 76
-0.386115 0.511962 -0.670368 0.667944 0.382021 -0.638679 81 67 57
-0.0771725 0.107387 -0.772367 0.496357 0.579509 -0.646373 101 69 56
0.0251025 -0.216114 -0.806605 0.549305 -0.154214 -0.821269 143 110 99
-0.0289235 -0.079458 -0.81355 0.804771 0.166975 0.569616 115 59 41
-0.261674 0.224158 -0.809924 0.494005 0.649956 -0.577508 113 96 75
-0.137258 0.0684225 -0.854604 0.659509 0.558333 -0.503301 113 96 76
-0.011504 -0.161207 -0.91493 0.743946 0.428938 -0.512401 98 58 48
0.684202 0.650832 0.482462 0.923545 0.0946731 0.371621 153 38 40
0.688264 0.670548 0.462315 0.961983 -0.0149649 0.272699 157 52 54
0.540282 -0.111722 0.549769 0.944664 -0.110342 0.308924 202 173 164
0.677099 0.775369 0.352292 0.421068 0.655619 -0.626789 182 167 172
0.721729 0.372928 0.32836 0.855993 0.505649 -0.10768 174 96 97
0.704491 0.510576 0.335913 0.947622 0.00596564 -0.31934 145 22 26
0.669594 0.678658 0.322219 0.815053 -0.0989249 -0.570878 164 88 93
0.610329 -0.192176 0.30576 0.87402 0.24195 0.421366 202 185 182
0.637299 -0.112918 0.277227 0.985949 0.165533 -0.0224661 42 38 39
0.433714 0.834489 0.274883 0.972152 0.100062 -0.211913 64 40 29
0.666539 -0.0430752 0.210132 0.86219 -0.429646 0.268389 195 164 156
0.558766 0.571742 0.209288 0.497918 0.4672 -0.730617 148 121 121
0.651257 0.107709 0.135432 0.826438 0.0899462 -0.555797 172 130 111
0.677089 -0.382907 0.129805 0.963931 -0.203919 -0.171043 77 44 37
0.606971 -0.205472 -0.00919565 0.670307 0.195886 -0.715764 113 84 73
0.587711 -0.0875016 -0.0226728 0.870614 0.263049 -0.415737 179 160 151
0.576617 -0.266516 -0.0643946 0.590487 0.150104 -0.792965 171 154 146
0.547098 -0.23278 -0.0717293 0.629758 0.143048 -0.763507 143 121 110
0.106913 0.443488 -0.0513441 0.814926 0.577232 -0.0519506 160 141 146
0.241142 0.147212 -0.127165 0.477624 0.158119 -0.864219 119 20 22
-0.0408689 0.535287 -0.148336 0.593731 0.601959 -0.533975 54 26 22
0.204871 0.142122 -0.209779 0.963383 0.0324513 -0.266156 190 172 177
0.180041 0.248528 -0.199942 0.666954 0.0239588 -0.744713 130 29 33
0.145854 0.307604 -0.213137 0.652206 0.418543 -0.632019 176 162 167
0.0570384 0.413742 -0.195524 0.44232 0.419467 -0.792717 148 41 43
-0.156047 0.780366 -0.191456 0.608783 -0.109957 -0.78568 94 74 66
0.131818 -0.00646074 -0.264578 0.644882 -0.346401 -0.681273 176 157 161
0.139235 0.0815663 -0.270148 0.315766 -0.000975539 -0.948837 117 14 16
0.112705 0.166224 -0.282777 0.562093 0.155279 -0.812367 138 108 111
0.069102 0.0353559 -0.344514 0.938559 -0.010194 0.344967 143 21 24
0.0509004 0.14306 -0.353365 0.755993 -0.379518 -0.53333 127 16 19
-0.245474 -0.683394 -0.263823 0.905187 -0.396095 0.1541 174 148 139
0.0852601 -0.0494937 -0.385016 0.977624 0.208552 -0.0275249 190 86 88
0.017921 0.203035 -0.414167 0.857892 0.394608 -0.329098 188 173 179
0.00367249 0.122994 -0.475915 0.949873 0.267783 0.161347 108 11 15
-0.0383951 0.220792 -0.499179 0.658452 0.694879 -0.289109 145 26 27
0.0237299 0.00309593 -0.525096 0.692268 0.61896 -0.371016 118 20 21
-0.143505 0.319975 -0.535996 0.86376 0.212339 -0.456981 168 132 123
-0.286868 0.603429 -0.527024 0.549595 0.574688 -0.606365 85 66 53
-0.415479 0.722256 -0.527671 0.446108 0.659516 -0.605001 93 77 66
0.0797502 -0.359475 -0.654914 0.697794 -0.692206 -0.184212 171 145 138
0.146933 -0.183518 -0.674894 0.877237 0.382018 -0.290718 159 124 111
-0.0720736 0.0614775 -0.67155 0.876802 -0.394117 -0.275485 171 146 150
-0.128288 0.253193 -0.701163 0.539865 0.509004 -0.670419 111 88 71
-0.0935833 -0.0287039 -0.70899 0.697054 0.551536 -0.458175 98 28 28
0.0581332 -0.205321 -0.78772 0.744838 0.336455 -0.576206 162 130 119
-0.0748719 0.0912911 -0.784392 0.45707 0.599904 -0.656659 109 81 66
0.526621 0.287918 0.755447 0.854658 -0.313034 0.41421 171 95 102
0.606376 -0.102553 0.400467 0.858844 -0.476881 0.187007 189 157 146
0.710028 0.32743 0.265645 0.877376 0.117851 -0.465106 191 174 167
0.602087 0.18482 0.0909582 0.740224 0.331178 -0.58514 172 135 121
0.481505 -0.217811 -0.104424 0.412083 0.182097 -0.892764 154 138 133
0.4056 -0.158749 -0.163014 0.274235 0.230157 -0.933715 157 139 130
-0.102187 0.731684 -0.133951 0.475143 -0.805373 -0.35442 79 44 30
0.119171 -0.141785 -0.193491 0.721935 -0.311805 -0.617728 116 14 16
0.0595114 0.0374847 -0.438981 0.910997 0.339956 -0.233484 189 171 175
-0.465963 0.68844 -0.581093 0.431213 0.553454 -0.712561 85 69 59
0.112705 -0.340864 -0.634939 0.744066 -0.498782 -0.444503 185 159 152
0.0695714 -0.207214 -0.76543 0.726789 0.100349 -0.67949 164 132 120
-0.212744 -0.0376796 -0.976205 0.440782 0.619369 -0.649687 104 88 73
0.740102 0.354526 0.364474 0.981474 0.131089 -0.13973 185 109 111
0.56254 0.0629468 -0.00552361 0.431697 -0.175774 -0.884727 162 126 111
0.386318 0.312211 -0.0227539 0.553074 0.39003 -0.736197 153 123 112
0.357934 0.242266 -0.0693869 0.3137 0.485881 -0.815789 155 123 111
0.410929 -0.127088 -0.149394 0.387962 0.185104 -0.902897 160 143 135
0.0860625 -0.139496 -0.210614 0.429171 -0.275361 -0.860225 115 18 20
-0.19012 -0.640298 -0.222005 0.764921 -0.614516 -0.193045 176 146 137
0.0808136 0.0658329 -0.316664 0.980605 -0.164945 -0.105863 162 84 89
-0.00843969 0.0216826 -0.540975 0.630924 0.247582 -0.735281 144 43 44
0.0950943 -0.287554 -0.72998 0.763874 -0.289478 -0.5768 176 150 141
-0.12273 -0.182119 -1.02874 0.669354 0.506135 -0.543869 92 57 48
0.537566 0.549881 0.63692 0.858356 -0.0324691 0.512027 165 47 49
0.694736 0.42702 0.260382 0.939969 0.340231 -0.0264616 173 137 138
0.473364 0.830978 0.308156 0.459961 0.628701 -0.627034 65 41 32
0.543646 0.516535 0.116703 0.364738 0.420331 -0.830835 162 150 145
0.62975 -0.0819109 0.0896877 0.886292 0.300274 -0.352593 182 151 138
-0.283373 0.273295 -0.791008 0.43281 0.557389 -0.708514 79 61 50
0.677703 -0.187341 0.122088 0.828854 0.391508 -0.399653 190 171 161
0.60181 0.14317 0.0708558 0.729054 0.210357 -0.65133 174 136 123
-0.468713 0.650227 -0.621959 0.617917 0.67074 -0.410227 81 67 57
-0.0831086 0.0947038 -0.700177 0.732129 -0.626196 0.268079 119 82 78
-0.053961 0.177087 -0.644843 0.479923 0.509579 -0.714144 127 22 23
