ply
format ascii 1.0
element vertex 480
property float x
property float y
property float z
property float nx
property float ny
property float nz
property uchar diffuse_red
property uchar diffuse_green
property uchar diffuse_blue
end_header
0.71694 0.403734 0.385728 0.886208 -0.142536 -0.440815 173 84 84
0.732252 0.332358 0.331005 0.897991 0.22102 -0.380477 195 175 172
0.740102 0.354526 0.364474 0.981474 0.131089 -0.13973 185 109 111
0.70513 0.418459 0.354051 0.813621 0.517813 -0.264369 177 109 110
0.688035 0.642683 0.36951 0.925574 -0.19144 -0.326594 190 161 167
0.699362 0.471132 0.332759 0.894686 -0.206003 -0.396357 188 159 163
0.690097 0.673635 0.346559 0.82384 -0.258746 -0.504318 151 44 47
0.698798 0.438865 0.308423 0.98231 0.178643 -0.0561617 183 148 150
0.705133 0.372246 0.300899 0.900992 -0.062708 -0.42928 196 176 173
0.703933 0.39512 0.272857 0.958913 0.277004 -0.061281 192 172 171
0.67735 0.645374 0.334295 0.890044 -0.12941 -0.437121 186 163 167
0.635225 0.849675 0.393191 0.0985462 0.724563 -0.682128 99 33 34
0.676588 0.552615 0.296366 0.688228 -0.0532501 -0.723537 139 44 45
0.662643 0.614751 0.304326 0.79203 0.193935 -0.578858 133 97 93
0.698866 -0.318509 0.144806 0.986772 -0.145803 -0.0708692 193 177 172
0.666552 0.136857 0.190929 0.908302 0.387066 -0.158641 192 160 148
0.61606 0.725736 0.283595 0.43803 0.415456 -0.797199 120 15 16
0.660425 0.338729 0.183207 0.539001 0.286102 -0.792227 179 163 154
0.67876 -0.295913 0.060634 0.886077 0.163869 -0.433605 182 163 154
0.640071 0.204693 0.149906 0.640827 0.402677 -0.653599 177 144 131
0.636636 0.359287 0.164232 0.708177 0.261414 -0.655857 175 158 149
0.658767 -0.025077 0.122224 0.866116 0.0122663 -0.499693 174 133 116
0.657276 -0.371388 0.0859942 0.842629 -0.330235 -0.425349 186 172 169
0.577102 0.557091 0.223268 0.559086 0.284272 -0.778853 152 120 120
0.56836 0.674029 0.238121 0.00771252 0.407142 -0.913332 156 127 132
0.616115 -0.467594 0.100286 0.335943 -0.459922 -0.821957 70 40 34
0.629714 0.10955 0.0850561 0.94999 0.0368544 -0.310099 179 142 128
0.463064 0.889907 0.381874 0.326582 0.775511 -0.540303 102 16 16
0.602135 0.259768 0.139532 0.806171 0.11146 -0.581089 154 127 113
0.498608 0.74142 0.282754 0.00316303 0.0876908 -0.996143 41 19 15
0.54755 -0.491857 0.0638057 0.462552 -0.686845 -0.560616 181 170 169
0.472547 0.634598 0.215401 0.219743 0.549946 -0.805774 108 45 48
0.593889 -0.172365 -0.00914265 0.790301 0.0490213 -0.610755 117 88 77
0.541704 0.331219 0.0857222 0.451252 0.098477 -0.886946 148 125 111
0.344831 0.884481 0.358249 0.229171 0.333552 -0.914453 118 90 90
0.686909 -0.344359 0.129518 0.869412 -0.410651 -0.274753 175 154 150
0.578448 -0.0569502 -0.0154934 0.806982 0.354495 -0.472348 180 160 151
0.517799 0.298416 0.0543852 0.63762 0.0543708 -0.76843 169 139 128
0.505218 0.271574 0.0344999 0.722153 0.304789 -0.620965 160 124 109
0.493897 0.350396 0.0656888 0.495387 0.527341 -0.690293 138 109 95
0.517993 0.0399767 -0.02328 0.478199 -0.0244023 -0.877912 150 115 97
0.527377 -0.191389 -0.0864177 0.526531 -0.0289063 -0.849665 165 149 143
0.497236 0.145502 -0.0310453 0.62054 0.140071 -0.771563 167 133 119
0.500228 -0.0603321 -0.0894222 0.378915 0.284054 -0.880759 163 147 139
0.513573 -0.245468 -0.102316 0.441649 0.405851 -0.800144 151 134 125
0.488429 0.083994 -0.0577919 0.703407 0.085995 -0.705565 168 139 126
0.50385 -0.188938 -0.10165 0.438271 -0.036861 -0.898087 162 146 139
0.304711 0.62198 0.166242 0.120981 -0.869795 -0.478353 118 102 98
0.445725 0.0577649 -0.0724448 0.384616 -0.119484 -0.915311 151 116 100
0.457518 0.126667 -0.0656514 0.439289 0.184503 -0.879195 160 128 115
0.385393 0.272729 -0.0411555 0.344485 0.503302 -0.792475 161 133 123
0.271364 0.460062 0.0893312 -0.143132 0.579786 -0.802098 130 98 86
0.356015 0.261309 -0.0619234 0.185335 0.580314 -0.793024 154 120 105
0.347541 0.204347 -0.0830718 0.222761 0.460979 -0.858997 155 121 107
0.344269 -0.28615 -0.137934 0.00227558 -0.27346 -0.96188 130 107 97
0.134 0.622803 0.154492 0.302309 -0.744356 -0.595435 48 24 16
0.293017 0.0854195 -0.0950602 0.273589 -0.26191 -0.925501 148 111 99
0.297955 -0.313081 -0.125124 0.0100411 -0.376791 -0.926244 158 142 135
0.266459 0.0361325 -0.0945896 0.501404 -0.0932349 -0.860175 95 53 46
0.250224 0.0082801 -0.105508 0.915052 -0.101055 -0.390471 88 37 35
0.249656 -0.339989 -0.112366 0.0390717 -0.567167 -0.822675 149 133 128
0.242494 0.204586 -0.11663 0.615467 0.200563 -0.762217 145 91 93
0.187967 0.324544 -0.0457146 0.446946 0.685775 -0.574414 136 98 93
0.226371 0.240008 -0.107619 0.222161 0.727717 -0.648901 165 145 149
0.209719 -0.313459 -0.10856 -0.205639 -0.257391 -0.944173 167 154 154
0.195658 0.294253 -0.103225 0.943393 0.0121696 -0.331455 111 32 36
0.143821 -0.31414 -0.0706286 -0.236809 -0.168426 -0.956846 165 152 151
0.214105 0.173883 -0.14437 0.943553 -0.0613533 -0.325487 100 12 15
0.21609 0.032691 -0.15445 0.703297 -0.0780684 -0.706597 116 24 25
0.199751 0.25459 -0.14967 0.991364 0.127969 -0.0286396 176 146 151
0.190163 0.300318 -0.14393 0.943268 0.324224 0.0715851 176 143 147
0.159623 0.357726 -0.114857 0.600659 0.628834 -0.493737 137 19 21
0.173383 -0.156626 -0.158304 0.128049 -0.527169 -0.840058 121 47 48
0.180643 0.342436 -0.141817 0.651984 0.302675 -0.695201 139 22 24
0.12659 0.412615 -0.0766963 0.909421 0.412877 0.0498572 166 127 132
0.183466 0.20978 -0.211858 0.616554 0.355003 -0.702732 111 13 17
0.154259 0.327166 -0.181427 0.705531 0.288539 -0.64728 175 149 153
0.167984 0.0154185 -0.221511 0.840431 -0.428522 -0.331729 151 38 40
0.171402 0.223205 -0.218819 0.674925 0.322395 -0.663731 112 13 16
-0.0149681 0.53422 -0.00777923 0.46167 0.840271 -0.284262 135 100 101
0.16951 0.222216 -0.221437 0.654688 0.317701 -0.685894 115 13 16
0.119171 -0.141785 -0.193491 0.721935 -0.311805 -0.617728 116 14 16
0.161869 0.0384398 -0.254296 0.78542 -0.201682 -0.585182 167 81 85
0.0993315 0.381961 -0.207642 0.395661 0.564314 -0.72457 140 25 28
-0.0639452 0.565528 -0.0447643 0.964788 0.257787 0.0522492 45 18 14
0.105392 0.0742855 -0.283503 0.374132 0.107021 -0.92118 119 20 22
0.074865 -0.0757869 -0.279144 0.725091 -0.536188 -0.432139 127 33 37
0.0891641 0.0836432 -0.314514 0.993957 0.101183 -0.0425697 163 105 109
-0.0540351 0.530758 -0.16668 0.552095 0.562786 -0.615194 61 35 30
0.0809059 0.0710511 -0.353654 0.994061 -0.0230057 -0.106363 165 36 40
0.0284557 0.242314 -0.289957 0.45934 0.764761 -0.451827 108 56 45
0.00364061 0.279832 -0.275619 0.764606 -0.389892 -0.513187 145 101 89
-0.0386256 0.507432 -0.226078 0.965412 -0.149921 -0.213313 173 146 140
0.0767197 -0.0128073 -0.355532 0.97728 0.117135 0.176641 169 31 34
0.0790866 0.00381768 -0.370652 0.990121 0.117157 0.0770282 165 26 30
0.072741 0.0844368 -0.369311 0.86088 0.508754 -0.00743588 157 36 40
0.0890428 -0.0533095 -0.423719 0.938693 0.2797 -0.201553 188 140 139
-0.0758771 0.536601 -0.238481 0.884721 0.0794777 -0.459294 150 125 121
-0.090114 0.579708 -0.241021 0.879457 0.229132 -0.417197 72 47 39
-0.0158573 0.451237 -0.317849 0.765693 0.383217 -0.516585 174 143 133
-0.0233235 0.351195 -0.349802 0.758696 -0.15753 -0.632111 168 134 124
-0.109325 0.588779 -0.280349 0.547142 -0.25167 -0.798309 47 24 18
0.0473898 0.0465446 -0.45556 0.829165 0.512271 -0.22375 186 153 159
0.0565756 -0.00133096 -0.47994 0.765436 0.405675 -0.499534 177 145 148
-0.0398457 0.425418 -0.375677 0.694031 0.0950021 -0.713649 168 137 127
-0.0396076 0.39058 -0.374898 0.750212 0.0171389 -0.660975 163 129 117
0.0469798 0.000795671 -0.493955 0.813674 0.391645 -0.429592 161 101 102
-0.0487391 0.347207 -0.38712 0.81906 -0.118866 -0.561259 167 134 124
-0.0676239 0.496734 -0.367236 0.660508 0.642127 -0.389106 191 167 161
-0.141422 0.581453 -0.307411 0.943971 0.262697 -0.199773 61 36 29
0.161332 -0.194956 -0.645878 0.606525 -0.150439 -0.780702 178 149 140
-0.0690397 0.324763 -0.41172 0.695786 -0.140384 -0.704397 168 134 126
-0.0780085 0.318359 -0.424136 0.813036 -0.3768 -0.44384 166 131 123
0.121637 -0.121395 -0.636607 0.640841 0.594236 -0.486012 190 164 158
-0.011021 0.0863974 -0.526998 0.748732 -0.37821 -0.544387 125 23 24
-0.106844 0.297552 -0.447068 0.894653 0.355121 -0.271081 165 127 118
-0.19093 0.558622 -0.377123 0.494841 0.670426 -0.552867 157 130 124
-0.0529418 0.236604 -0.525767 0.692181 0.699847 -0.176352 140 70 64
-0.142284 0.476171 -0.441352 0.711652 0.63896 -0.292027 159 131 121
-0.0335989 0.0545055 -0.55951 0.694351 0.277375 -0.664033 144 86 88
-0.242734 0.698939 -0.3784 0.875661 0.444816 -0.188036 124 74 60
-0.254624 0.721947 -0.376557 0.824458 0.477668 -0.303484 111 64 53
0.0244195 -0.412508 -0.648909 0.652163 -0.621364 -0.434269 165 143 138
-0.152219 0.435011 -0.488447 0.779783 0.311502 -0.543051 156 126 118
-0.042375 -0.457949 -0.627377 0.853264 -0.506784 -0.122923 105 74 63
-0.232893 0.650764 -0.421283 0.895959 0.363658 -0.254973 113 65 54
0.026734 -0.378672 -0.69197 0.529674 -0.53467 -0.658462 166 139 131
-0.0434236 0.123065 -0.639887 0.86971 -0.0693976 -0.488659 140 16 19
-0.216036 0.583597 -0.4702 0.85186 0.440989 -0.282601 99 53 45
-0.289375 0.71924 -0.429744 0.500193 0.562585 -0.658259 109 86 70
-0.17242 0.439022 -0.565489 0.678369 0.486849 -0.550267 93 50 41
-0.0948373 0.00333807 -0.645797 0.932432 -0.235239 -0.274287 100 17 18
-0.0627664 0.109935 -0.667834 0.806363 0.104812 -0.582059 159 114 114
0.0588943 -0.285832 -0.793186 0.496383 -0.242506 -0.833543 160 137 132
0.0532585 -0.179622 -0.787132 0.41813 0.327864 -0.847155 153 120 108
-0.264528 0.625669 -0.492793 0.570269 0.542959 -0.616433 108 86 69
-0.32567 0.710158 -0.464319 0.479633 0.468083 -0.742193 78 58 50
-0.281444 0.694014 -0.446478 0.623017 0.526894 -0.578128 101 80 65
-0.163458 -0.169529 -1.05053 0.515214 0.526528 -0.676256 95 57 49
-0.294783 0.655966 -0.501473 0.402483 0.578527 -0.709447 82 61 52
-0.0812708 0.176613 -0.710593 0.800312 0.429469 -0.418399 107 61 49
-0.305617 0.642484 -0.506678 0.519548 0.537265 -0.664391 83 64 54
-0.0226997 -0.361267 -0.784569 0.728797 -0.652556 -0.207425 128 109 107
-0.098044 -0.0121985 -0.696173 0.659978 0.469907 -0.586188 100 17 18
-0.0732221 0.14783 -0.736448 0.579535 0.510791 -0.635005 93 53 43
-0.274735 0.565214 -0.561643 0.342017 0.603105 -0.720617 84 63 52
-0.0188177 -0.277096 -0.81554 0.420783 -0.25258 -0.871289 110 74 65
-0.128288 0.253193 -0.701163 0.539865 0.509004 -0.670419 111 88 71
-0.00434054 -0.173806 -0.819997 0.568784 0.473082 -0.672813 102 56 42
-0.398301 0.750339 -0.490221 0.374531 0.614653 -0.69421 111 90 77
-0.12022 0.209658 -0.730251 0.55725 0.501035 -0.662145 115 93 74
-0.220276 0.388513 -0.648531 0.588264 0.565697 -0.57787 103 83 67
-0.016035 -0.0287943 -0.823961 0.694142 0.442151 -0.56804 119 70 55
-0.261337 0.469494 -0.608409 0.664882 0.581928 -0.468287 110 90 71
0.0192542 -0.131956 -0.863044 0.731176 0.351822 -0.584468 135 84 67
0.0119672 -0.180666 -0.858236 0.912913 0.136474 0.384661 125 79 62
-0.105851 0.131967 -0.775662 0.493964 0.550628 -0.67291 109 88 72
-0.226966 0.35066 -0.687647 0.62713 0.47783 -0.615131 78 60 49
-0.289303 0.480037 -0.627914 0.651617 0.519777 -0.552473 75 58 49
-0.150535 0.20152 -0.758006 0.418375 0.559038 -0.715848 117 97 77
-0.336697 0.564128 -0.606551 0.397144 0.448786 -0.800542 71 53 44
-0.359585 0.597167 -0.598456 0.394829 0.533703 -0.747845 83 64 54
-0.0651765 0.0119033 -0.846219 0.583533 0.514516 -0.628302 107 88 71
-0.179546 0.248868 -0.745554 0.384202 0.449975 -0.806171 118 99 78
-0.0512834 -0.0316182 -0.867907 0.619018 0.517241 -0.590998 113 93 74
-0.273654 0.412902 -0.679833 0.498327 0.410155 -0.763835 106 88 71
-0.0372067 -0.0610708 -0.87652 0.665312 0.41001 -0.623901 115 93 75
-0.0651511 -0.0663987 -0.903286 0.556427 0.530854 -0.639204 91 70 58
-0.130421 0.0562566 -0.853855 0.472398 0.582432 -0.661524 119 100 79
-0.207971 0.17223 -0.817573 0.595197 0.538097 -0.596819 110 93 75
-0.412807 0.562177 -0.663338 0.42277 0.613871 -0.666654 108 92 75
-0.109197 -0.0165095 -0.902644 0.328346 0.567636 -0.754969 121 103 82
-0.384565 0.493675 -0.682669 0.672277 0.387422 -0.630832 73 58 50
-0.0924367 -0.0586283 -0.922879 0.492589 0.525619 -0.693599 116 97 78
-0.232049 0.20606 -0.804922 0.633947 0.463627 -0.619 106 90 72
-0.287685 0.292843 -0.777354 0.372079 0.622086 -0.688888 113 96 79
-0.208564 0.126687 -0.854502 0.514861 0.515428 -0.685019 116 98 80
-0.318072 0.27765 -0.809709 0.514373 0.519302 -0.682457 112 96 78
-0.258207 0.171844 -0.85641 0.697298 0.426006 -0.576449 110 94 74
-0.542272 0.660976 -0.66645 0.392157 0.62354 -0.676321 99 86 75
-0.220066 0.0782281 -0.898364 0.42068 0.574476 -0.702144 115 100 79
-0.388219 0.344838 -0.798404 0.412185 0.61661 -0.670742 108 93 75
-0.446151 0.417549 -0.776575 0.490576 0.635221 -0.596515 103 89 73
-0.50061 0.524037 -0.744573 0.323753 0.599137 -0.73227 79 66 55
-0.35913 0.252198 -0.848238 0.546028 0.566211 -0.61746 102 89 74
-0.381097 0.324976 -0.814729 0.337412 0.572489 -0.747268 109 94 75
-0.476626 0.458929 -0.765464 0.553488 0.490753 -0.672913 82 69 60
-0.154433 -0.277467 -1.01293 0.241843 -0.166047 -0.956002 121 115 100
-0.375616 0.249158 -0.863205 0.392961 0.609359 -0.688668 79 63 54
-0.446422 0.349043 -0.829546 0.4338 0.578753 -0.690553 74 61 52
-0.391383 0.262175 -0.866104 0.464095 0.514973 -0.720707 84 71 58
-0.553082 0.526819 -0.759201 0.305303 0.575848 -0.758413 102 89 74
-0.300945 0.0837222 -0.942812 0.418301 0.561142 -0.714243 114 99 81
-0.305931 0.0536902 -0.965763 0.38088 0.510692 -0.770795 116 102 83
-0.365576 0.174254 -0.921349 0.91584 0.394436 -0.0752208 109 94 77
0.695834 0.451379 0.332026 0.902966 0.00449082 -0.429688 192 172 175
0.665963 0.590291 0.294667 0.695593 0.340615 -0.63256 160 128 129
0.659281 0.650377 0.297368 0.73675 -0.0950686 -0.669449 178 157 160
0.676455 0.119828 0.226728 0.963701 0.2612 -0.0552613 189 159 148
0.640728 0.645636 0.28167 0.785143 0.137729 -0.603805 175 155 158
0.635202 0.507905 0.256893 0.683764 -0.0798525 -0.725322 169 134 136
0.659485 0.0966273 0.146936 0.680023 -0.104924 -0.725644 166 122 102
0.66204 0.0766489 0.143288 0.76434 0.0878715 -0.638798 166 121 101
0.654549 -0.399102 0.10296 0.777221 -0.301026 -0.55255 149 127 125
0.553476 0.638322 0.227014 0.0385713 0.154142 -0.987295 125 20 21
0.614494 0.167897 0.094093 0.762237 0.352478 -0.542912 170 129 112
0.602504 0.201639 0.103145 0.706509 0.399815 -0.583946 177 142 130
0.6168 0.102784 0.0650956 0.848319 0.128841 -0.513571 183 146 133
0.581678 0.217787 0.0834125 0.734479 0.500645 -0.458142 157 112 95
0.576147 -0.17593 -0.0361396 0.878913 0.111381 -0.463795 190 173 167
0.550427 -0.0723767 -0.0514459 0.713688 0.235245 -0.65978 161 142 130
0.555382 -0.252223 -0.0796614 0.502205 0.473598 -0.723529 169 153 146
0.551505 -0.331409 -0.0722362 0.462325 -0.411935 -0.785217 169 154 146
0.463717 0.312456 0.0235879 0.563462 0.593329 -0.574867 165 136 127
0.50422 0.0626781 -0.0343023 0.431101 -0.222745 -0.874378 151 115 97
0.456848 0.181146 -0.0489779 0.432952 0.326173 -0.840335 153 114 97
0.455582 0.164118 -0.0538691 0.565041 0.357529 -0.743573 151 115 99
0.39276 0.346914 0.00412597 0.448279 0.585861 -0.675138 154 127 117
0.282146 0.650577 0.120607 0.17756 -0.885317 -0.429751 72 41 27
0.407908 0.0134048 -0.0845902 0.0702179 0.311 -0.947812 167 148 140
0.438657 -0.201725 -0.150332 0.759181 -0.202512 -0.618574 170 155 148
0.343506 -0.256408 -0.145003 -0.00635131 -0.280826 -0.959738 160 143 137
0.194486 0.409172 0.00716202 -0.278757 0.0423015 -0.95943 146 117 108
0.254327 -0.0312747 -0.107993 0.532622 0.510269 -0.675233 133 98 92
0.224813 0.328661 -0.0499356 0.0078712 0.742732 -0.669543 146 113 107
0.240316 0.0463486 -0.123991 0.950762 -0.0603344 -0.303995 146 117 114
0.223102 -0.129602 -0.13738 0.367439 -0.28387 -0.885667 156 131 126
0.126691 0.439856 -0.00042845 0.960528 0.226537 -0.161453 86 24 26
0.0542792 0.717405 0.0780906 0.368389 -0.833759 -0.411259 65 34 24
0.228142 0.138713 -0.141308 0.651775 0.0363088 -0.757543 102 16 18
0.209343 0.224639 -0.131426 0.884329 0.0918567 -0.457739 157 113 117
0.198325 -0.0585956 -0.159702 0.442364 -0.19874 -0.874538 152 117 116
0.070496 0.791314 0.000722517 0.375713 -0.878202 -0.295974 73 46 36
0.0611817 0.753135 0.02012 0.290767 -0.873222 -0.391073 98 57 39
0.160243 -0.112486 -0.172867 0.611696 -0.0794194 -0.787097 158 131 131
0.0906223 -0.212429 -0.104955 0.690628 -0.496805 -0.525565 152 127 129
0.125475 -0.154766 -0.178527 0.684728 -0.690969 -0.231757 124 17 19
-0.0612245 0.699822 -0.0127516 0.44006 -0.825556 -0.353278 58 30 22
-0.0113664 -0.268266 -0.105444 0.197338 -0.560836 -0.804065 118 18 19
0.143647 0.138055 -0.269941 0.310462 0.155092 -0.937848 162 138 142
0.0402226 0.423924 -0.201163 0.499479 0.33262 -0.799927 137 34 34
0.0627395 -0.0994277 -0.258714 0.491755 -0.718632 -0.491675 114 18 21
-0.0648476 0.733072 -0.087776 0.449227 -0.854438 -0.261019 91 53 36
0.0730532 0.154743 -0.304577 0.75056 0.175422 -0.637092 158 113 116
0.0374105 0.385107 -0.278838 0.74639 0.641848 -0.175879 172 133 122
0.0333109 0.400437 -0.26567 0.936897 0.342776 -0.0687659 176 137 127
-0.123635 0.761849 -0.145529 0.570475 -0.432396 -0.698278 79 44 34
0.0881377 -0.0420901 -0.404919 0.92946 0.244656 -0.276131 177 76 78
0.168311 -0.175121 -0.529482 0.856495 0.12533 -0.500709 182 151 141
0.188195 -0.199836 -0.572407 0.961338 0.0462636 -0.271457 190 160 151
0.0574221 0.00845232 -0.459628 0.889199 0.389743 -0.239635 184 163 167
0.159935 -0.257018 -0.599735 0.853785 -0.400397 -0.332767 173 138 126
-0.131413 0.592065 -0.316917 0.958418 -0.0673737 -0.277303 56 32 24
0.0121062 0.160971 -0.464107 0.900926 -0.370586 -0.225828 146 22 25
0.0106039 0.100852 -0.485401 0.920719 0.33316 0.203176 115 12 16
0.013788 0.0610331 -0.501672 0.887159 0.356391 -0.293144 152 23 25
0.0715403 -0.0672343 -0.571442 0.278018 0.91758 -0.284173 186 157 152
0.144854 -0.220536 -0.656263 0.688003 -0.11719 -0.716184 173 138 126
0.117358 -0.315533 -0.655343 0.76717 -0.53971 -0.346646 185 156 148
-0.022269 0.0789074 -0.540513 0.81461 -0.201664 -0.543821 133 36 39
0.0951197 -0.333267 -0.681963 0.675396 -0.534965 -0.507595 170 140 132
-0.212634 0.599846 -0.386557 0.688761 -0.0269248 -0.724488 50 28 22
0.105826 -0.244074 -0.71306 0.933224 0.0817914 -0.349861 182 150 139
-0.147796 0.443534 -0.470019 0.872468 0.411291 -0.263894 160 132 125
0.0339671 -0.0739148 -0.642433 0.422979 0.900264 -0.103016 178 150 145
-0.241749 0.685756 -0.398615 0.855206 0.434052 -0.283234 115 66 55
-0.032927 -0.450995 -0.64898 0.861992 -0.451831 -0.229821 99 69 58
-0.242777 0.672308 -0.420111 0.856132 0.398738 -0.328702 94 51 44
0.0854326 -0.235809 -0.75358 0.763657 0.516417 -0.38748 180 154 146
-0.276687 0.738185 -0.426779 0.278795 0.649461 -0.707441 115 92 74
-0.0821151 -0.0787641 -0.664906 0.48218 0.875775 -0.022809 158 117 111
-0.249253 0.57145 -0.526724 0.534538 0.544781 -0.646129 107 86 68
-0.326008 0.72989 -0.451119 0.485789 0.485092 -0.727115 83 64 55
-0.0353961 -0.371427 -0.742211 0.821707 -0.565505 -0.0707239 159 139 134
-0.124261 0.2818 -0.658445 0.623407 0.580864 -0.523414 91 50 42
-0.276785 0.62073 -0.520336 0.41882 0.664749 -0.618626 92 70 58
-0.00600978 -0.317155 -0.824301 0.544395 -0.59385 -0.592431 85 50 42
-0.146706 0.261633 -0.704525 0.538505 0.589648 -0.601936 103 83 67
-0.219072 0.406983 -0.636617 0.571424 0.486326 -0.661031 107 87 69
-0.377168 0.726951 -0.494063 0.357594 0.611077 -0.706194 112 93 75
-0.365915 0.669769 -0.533072 0.471437 0.666178 -0.577888 108 89 72
-0.327454 0.589341 -0.576555 0.396421 0.575053 -0.715657 110 90 73
-0.104971 0.147712 -0.765417 0.598376 0.51687 -0.612203 96 75 61
-0.068586 0.0694709 -0.800419 0.570875 0.518039 -0.636975 107 84 67
-0.263544 0.426699 -0.65295 0.528385 0.562107 -0.636274 86 67 55
-0.265769 0.444565 -0.639523 0.426805 0.558482 -0.711292 86 67 54
-0.255173 0.401249 -0.667712 0.52983 0.530556 -0.661656 87 68 56
-0.306743 0.496653 -0.62895 0.652809 0.496177 -0.572406 85 68 56
-0.0855018 0.0679417 -0.812764 0.472285 0.629805 -0.616679 97 75 62
-0.135091 0.175042 -0.770767 0.452192 0.518468 -0.72575 91 71 58
-0.136014 0.158218 -0.780339 0.514945 0.554625 -0.653622 88 68 56
-0.22534 0.334537 -0.700618 0.653096 0.472054 -0.592141 96 78 63
0.0125205 -0.172706 -0.900764 0.901781 0.121652 -0.414719 100 60 47
-0.112302 0.114399 -0.804315 0.611626 0.456484 -0.646169 103 82 68
-0.0958784 0.0662372 -0.82618 0.453915 0.581641 -0.675022 86 65 54
-0.10988 0.0868729 -0.815231 0.612921 0.642015 -0.460594 87 68 55
-0.267301 0.395884 -0.685397 0.309571 0.563986 -0.765563 110 92 72
-0.34158 0.532392 -0.629355 0.351125 0.631779 -0.691062 108 89 71
-0.238751 0.287396 -0.742972 0.586865 0.582872 -0.562006 112 93 72
-0.419619 0.647076 -0.593346 0.424029 0.588955 -0.687992 108 90 74
-0.159783 0.150451 -0.812958 0.251994 0.683281 -0.685292 121 103 83
-0.128597 0.0930205 -0.829715 0.741215 0.577883 -0.341543 108 92 74
-0.342704 0.469452 -0.670163 0.57954 0.486128 -0.654073 106 89 72
-0.0825694 -0.0371901 -0.894347 0.43357 0.560315 -0.705736 92 72 58
-0.232999 0.25466 -0.770547 0.563931 0.515087 -0.645498 89 72 61
-0.322767 0.406093 -0.719639 0.287364 0.617132 -0.732509 113 98 78
-0.386115 0.511962 -0.670368 0.667944 0.382021 -0.638679 81 67 57
-0.326882 0.351059 -0.75361 0.471375 0.4945 -0.730257 108 92 74
-0.433061 0.553137 -0.676964 0.414754 0.497915 -0.761616 108 91 74
-0.12832 -0.0320461 -0.924116 0.534894 0.59571 -0.599182 114 97 78
-0.181393 0.0864356 -0.872841 0.384503 0.559252 -0.734436 118 101 79
-0.135583 -0.016365 -0.907722 0.576271 0.575339 -0.580427 110 94 75
-0.170593 0.00962516 -0.908904 0.57539 0.570174 -0.586368 89 71 60
-0.18759 0.0356402 -0.899004 0.480348 0.504203 -0.717666 82 62 52
-0.49213 0.598993 -0.664775 0.606293 0.595636 -0.526903 99 85 70
-0.258004 0.155033 -0.867672 0.674573 0.391644 -0.625753 106 92 76
-0.514759 0.641881 -0.668006 0.452732 0.719591 -0.526519 106 92 78
-0.159679 -0.0223473 -0.937329 0.472821 0.547441 -0.69047 95 76 64
-0.197007 0.0119477 -0.926006 0.624987 0.560521 -0.543331 107 91 74
-0.204446 -0.000553085 -0.937442 0.513301 0.535992 -0.670249 117 101 82
-0.461759 0.461079 -0.74752 0.566455 0.433331 -0.700967 101 87 72
-0.547395 0.616703 -0.682872 0.558974 0.615957 -0.555108 75 63 55
-0.535501 0.596749 -0.706209 0.387367 0.629335 -0.67371 81 70 61
-0.580305 0.673524 -0.674354 0.491782 0.662424 -0.565106 71 60 51
-0.210174 -0.00423506 -0.957094 0.373693 0.5819 -0.72232 115 99 79
-0.229572 0.00789935 -0.95481 0.475407 0.700408 -0.53237 106 91 75
-0.344781 0.213001 -0.874861 0.190598 0.771562 -0.60693 102 86 71
-0.193655 -0.0732497 -0.990035 0.605608 0.539397 -0.585056 107 91 73
-0.194595 -0.0577557 -0.97804 0.670388 0.445022 -0.593747 111 96 79
-0.596822 0.634636 -0.71378 0.268382 0.523973 -0.808346 101 90 77
-0.251892 -0.0142912 -0.978162 0.501269 0.636147 -0.586555 92 73 62
-0.191894 -0.105519 -1.02027 0.537184 0.448174 -0.714544 77 61 52
-0.230439 -0.0576108 -1.00234 0.574629 0.581542 -0.575856 81 66 55
-0.340119 0.142192 -0.9314 0.512663 0.461033 -0.72431 85 68 58
-0.435777 0.266204 -0.873567 0.102937 0.451522 -0.886302 112 96 79
-0.217631 -0.138485 -1.05793 0.307719 0.638662 -0.705279 117 102 83
0.697948 0.523747 0.32134 0.864982 0.0735014 -0.496392 142 18 20
0.657316 0.793758 0.344612 0.431411 0.591384 -0.681284 148 132 137
0.609025 0.847353 0.378271 0.622691 0.638143 -0.452802 60 31 27
0.64755 0.661502 0.289598 0.660016 0.0803883 -0.746939 171 145 149
0.635016 0.700047 0.287141 0.58298 0.254959 -0.771446 136 49 51
0.669826 -0.0197921 0.174077 0.967667 -0.0366464 -0.249557 195 163 153
0.609414 0.552315 0.24154 0.599062 0.146847 -0.787121 134 34 35
0.492114 0.92774 0.425642 0.141517 0.369996 -0.918192 146 130 134
0.640151 -0.110935 0.107776 0.968481 0.120449 -0.218027 194 168 158
0.634818 -0.407579 0.0939953 0.712575 -0.582965 -0.39037 171 156 154
0.531579 0.704585 0.262307 -0.135247 0.601096 -0.78765 145 133 139
0.628059 0.0940887 0.0829756 0.931802 0.152224 -0.329505 185 149 137
0.558766 0.571742 0.209288 0.497918 0.4672 -0.730617 148 121 121
0.620073 -0.078218 0.0295283 0.806748 0.577763 -0.123886 184 161 151
0.606971 -0.205472 -0.00919565 0.670307 0.195886 -0.715764 113 84 73
0.596725 -0.0116375 0.0159691 0.231238 -0.636716 -0.73561 161 121 102
0.587711 -0.0875016 -0.0226728 0.870614 0.263049 -0.415737 179 160 151
0.382083 0.766112 0.291994 -0.00310205 0.0522436 -0.998629 74 39 25
0.512479 0.00192831 -0.0676962 0.557211 0.377068 -0.739821 171 150 142
0.424654 0.374869 0.0479708 0.258933 0.759801 -0.596368 154 124 111
0.409045 -0.297145 -0.136967 0.0488753 0.0409944 -0.997963 168 154 147
0.186515 0.738317 0.152161 0.493082 -0.751587 -0.438163 82 47 30
0.293663 -0.0205535 -0.114133 0.0803579 0.727443 -0.681446 150 124 116
0.241155 0.327902 -0.0407739 0.108588 0.544147 -0.831933 146 117 109
0.243582 0.0734472 -0.133426 0.900815 -0.20417 -0.383206 148 122 119
0.229284 0.139545 -0.139136 0.651343 0.0714006 -0.755416 105 16 18
0.185752 0.00227561 -0.177 0.632957 -0.166786 -0.756007 96 10 13
0.166995 -0.0950943 -0.174487 0.506383 -0.13681 -0.851386 157 135 135
0.204871 0.142122 -0.209779 0.963383 0.0324513 -0.266156 190 172 177
-0.0711299 -0.392822 0.0379229 0.196418 -0.659893 -0.725232 73 9 13
0.179358 0.200197 -0.221769 0.63379 0.234719 -0.737032 122 35 39
0.170973 0.239998 -0.213399 0.704704 0.211568 -0.677223 114 13 17
0.00511302 0.818794 -0.0150229 0.496129 0.782545 -0.376137 111 48 45
0.122122 -0.115623 -0.204966 0.649091 -0.206258 -0.732215 121 24 27
0.00762026 -0.252998 -0.115571 0.425877 -0.735715 -0.526642 111 16 17
-0.0842397 0.679712 0.00916529 0.366996 -0.833098 -0.413838 52 26 19
0.140916 0.179853 -0.259774 0.641743 0.140927 -0.75386 173 152 156
-0.0879301 0.720816 -0.0857849 0.430668 -0.840314 -0.329239 82 45 29
0.0725536 0.257822 -0.267425 0.272563 0.177908 -0.945546 114 57 47
-0.0581417 0.525897 -0.222761 0.857837 0.108865 -0.502258 156 130 125
-0.122823 0.626862 -0.298889 0.525557 0.0964916 -0.845269 54 28 18
-0.181644 -0.643666 -0.374803 0.736234 -0.319588 -0.596509 116 83 69
0.118212 -0.324469 -0.635359 0.886028 -0.30441 -0.349698 184 155 147
-0.0966707 0.446166 -0.443709 0.454576 0.55284 -0.698376 154 123 110
0.0203489 -0.0529627 -0.58188 0.278111 0.914576 -0.293607 173 141 136
-0.197708 0.613179 -0.391111 0.793722 0.386734 -0.469513 58 30 21
0.0177303 -0.425382 -0.60989 0.678968 -0.660671 -0.320184 167 142 135
0.0897109 -0.323116 -0.69791 0.823671 -0.47424 -0.310908 174 144 136
-0.0483272 0.0126706 -0.579495 0.604533 -0.0257086 -0.796165 158 126 128
-0.144793 0.418974 -0.483993 0.819091 0.413983 -0.397124 158 128 120
-0.0463028 0.0839556 -0.595686 0.835785 -0.318939 -0.446923 123 18 21
-0.0486713 -0.46765 -0.644326 0.885577 -0.457683 -0.0792399 114 94 77
-0.053961 0.177087 -0.644843 0.479923 0.509579 -0.714144 127 22 23
-0.200341 0.500838 -0.538804 0.687046 0.53996 -0.48622 93 56 46
-0.107884 0.281325 -0.643006 0.521978 0.530237 -0.668123 117 67 55
0.0273962 -0.236515 -0.808261 0.42221 -0.0495359 -0.905144 154 125 116
-0.109177 0.236324 -0.700269 0.695706 0.504424 -0.51142 95 61 50
-0.199935 0.405051 -0.626145 0.610912 0.79007 -0.0507567 122 100 79
-0.221853 0.471782 -0.61034 0.171095 0.660683 -0.730906 119 98 77
-0.361994 0.701009 -0.503187 0.224628 0.703113 -0.674667 112 92 74
-0.163096 0.314452 -0.675709 0.524356 0.513976 -0.67888 117 96 76
-0.337608 0.612041 -0.557113 0.523086 0.584032 -0.620716 105 85 68
-0.155586 0.258614 -0.724052 0.321617 0.693699 -0.644471 103 81 67
-0.279158 0.460704 -0.648828 0.40436 0.627984 -0.664928 86 66 56
0.0012955 -0.303163 -0.88997 0.683844 -0.675096 -0.276769 128 110 91
0.00651865 -0.239921 -0.945538 0.270576 -0.248669 -0.930028 102 61 49
-0.507378 0.715384 -0.592962 0.281469 0.71326 -0.6419 105 90 77
-0.261674 0.224158 -0.809924 0.494005 0.649956 -0.577508 113 96 75
-0.513484 0.66353 -0.641984 0.495587 0.581249 -0.645402 108 92 77
-0.140613 -0.0498201 -0.94971 0.445391 0.618828 -0.647054 112 94 77
-0.344812 0.322852 -0.794523 0.304876 0.64294 -0.702624 101 85 70
-0.33317 0.272513 -0.824614 0.435827 0.628737 -0.644006 114 98 80
-0.215644 0.0125534 -0.94011 0.514691 0.531467 -0.672783 117 102 82
-0.144755 -0.111359 -0.993829 0.575498 0.484028 -0.65918 116 100 79
-0.635492 0.712053 -0.639448 0.57843 0.176947 -0.79631 80 69 60
-0.242374 -0.0337101 -0.994525 0.435129 0.627615 -0.645572 85 67 56
-0.559772 0.514422 -0.785582 0.232044 0.705701 -0.669434 81 54 49
0.677099 0.775369 0.352292 0.421068 0.655619 -0.626789 182 167 172
0.638918 -0.120666 0.0893357 0.963578 0.267424 0.00153087 191 169 160
0.594567 -0.525493 0.132516 0.569821 -0.634005 -0.52282 68 40 35
0.578599 0.491709 0.13343 0.678837 0.232835 -0.696397 174 159 153
0.417393 0.882057 0.358378 0.124571 0.729672 -0.672355 108 33 33
0.576617 -0.266516 -0.0643946 0.590487 0.150104 -0.792965 171 154 146
0.457464 0.597651 0.140929 0.340659 0.81484 -0.469026 172 165 166
0.319367 0.867388 0.289642 0.0523639 0.685155 -0.726513 101 23 22
0.418615 0.189483 -0.0635917 0.476885 0.206883 -0.854272 160 128 115
0.299697 0.421909 0.0674101 -0.0218616 0.697347 -0.7164 141 110 99
0.224965 0.856822 0.170335 0.62149 0.729054 -0.286757 95 12 14
0.148199 0.728506 0.167753 0.591293 -0.337462 -0.732455 82 47 30
0.267983 0.318392 -0.0446765 0.0110506 0.716997 -0.696989 156 130 123
0.0532472 0.647481 0.201066 0.233332 -0.686129 -0.689045 59 30 22
0.26367 -0.217774 -0.155933 -0.203132 -0.29053 -0.935057 167 148 144
0.029158 0.73418 0.00898767 0.506905 -0.826022 -0.246445 86 49 32
0.135287 0.321357 -0.218186 0.618263 0.512426 -0.595962 172 158 163
0.126443 -0.0288113 -0.260238 0.667018 -0.329346 -0.668295 173 160 164
0.112705 0.166224 -0.282777 0.562093 0.155279 -0.812367 138 108 111
0.017921 0.203035 -0.414167 0.857892 0.394608 -0.329098 188 173 179
-0.0179964 0.157243 -0.575919 0.882001 0.0839067 -0.463719 180 163 168
-0.1345 0.323455 -0.50076 0.825714 0.528288 -0.19776 174 138 128
-0.0944602 -0.0178314 -0.629781 0.245595 0.744537 -0.620764 114 16 18
0.0415893 -0.342343 -0.750588 0.459124 -0.595677 -0.659071 171 144 137
-0.0653574 0.0790573 -0.671879 0.907523 -0.139433 -0.396182 168 142 144
-0.322481 0.748899 -0.441686 0.196925 0.677546 -0.708627 104 84 72
-0.32563 0.693255 -0.476095 0.234739 0.521714 -0.82019 87 67 56
-0.111635 0.251229 -0.686514 0.680516 0.519931 -0.516304 92 54 44
-0.242024 0.455246 -0.607116 0.558614 0.529617 -0.638322 109 89 70
-0.0922298 0.134977 -0.761255 0.659915 0.545738 -0.516413 108 83 66
-0.0705666 -0.0975864 -0.935306 0.485748 0.524975 -0.698892 104 82 64
-0.292551 0.226671 -0.828679 0.326766 0.687692 -0.648308 115 99 79
-0.449171 0.438685 -0.765605 0.411095 0.490341 -0.768483 108 93 78
-0.547377 0.502167 -0.772927 0.29164 0.529592 -0.796542 100 84 71
0.566018 0.802008 0.31811 0.531269 0.75717 -0.38006 52 20 14
0.622947 -0.0850927 0.0517122 0.864805 0.49581 -0.0792732 192 169 160
0.31483 -0.335342 -0.134168 -0.293137 -0.050834 -0.954718 168 156 153
0.226815 0.38308 -0.00899611 0.232385 0.558827 -0.796058 143 105 92
0.221125 0.00461699 -0.145565 0.727662 -0.101784 -0.678342 112 14 16
0.14303 0.372122 -0.0619711 0.943735 0.329899 0.0230104 145 86 89
0.0502211 0.48539 -0.0925365 0.537137 0.811023 -0.231788 164 132 138
0.0857976 0.0692915 -0.29733 0.964578 -0.159507 -0.210113 139 80 82
0.175424 -0.233658 -0.588628 0.843182 -0.518468 -0.142244 176 144 134
0.00351973 0.0361666 -0.515629 0.785818 0.527325 -0.323138 146 23 26
-0.13119 0.345372 -0.508403 0.745431 0.266937 -0.6108 167 132 122
-0.310632 0.734718 -0.431591 0.504012 0.574386 -0.645021 89 68 57
-0.0680305 0.157292 -0.700937 0.965777 0.234721 0.110363 135 79 64
-0.083472 0.0526452 -0.824782 0.529031 0.588373 -0.611509 89 67 54
-0.330543 0.241459 -0.850879 0.2532 0.470622 -0.845224 113 98 79
-0.645117 0.670692 -0.694366 0.433271 0.463904 -0.772703 93 78 68
-0.336272 0.112109 -0.942436 0.402126 0.593439 -0.697227 110 94 79
-0.51341 0.386217 -0.829242 0.153018 0.621966 -0.767948 88 60 53
-0.276544 -0.0318283 -1.01166 0.407788 0.472857 -0.781098 111 94 76
-0.415382 0.165262 -0.918366 0.546761 0.837139 0.0158689 95 63 55
0.453354 -0.0545574 -0.106904 0.192473 0.177165 -0.965177 165 148 140
0.0130578 -0.211415 -0.163777 0.439849 -0.694725 -0.569113 152 123 131
0.160501 -0.124232 -0.516297 0.910359 0.310697 -0.273338 194 164 154
0.0883619 -0.313913 -0.713437 0.747218 -0.490183 -0.448762 172 144 135
0.0662663 -0.125725 -0.725628 0.347232 0.710597 -0.611949 174 144 136
-0.0310511 0.0161344 -0.803107 0.626425 0.509614 -0.589818 104 59 47
-0.400572 0.600733 -0.617082 0.374159 0.636773 -0.674185 84 67 55
-0.26586 0.0162732 -0.964913 0.559205 0.562816 -0.608709 88 71 61
0.476132 0.75212 0.282594 -0.0482005 -0.00216637 -0.998835 49 23 15
0.583933 0.131418 0.0367414 0.677218 0.19811 -0.70861 159 117 99
0.444094 -0.355817 -0.120571 0.181711 -0.541171 -0.821045 169 157 152
0.181217 -0.0374192 -0.178447 0.611786 -0.0786213 -0.787106 139 82 81
0.16791 -0.189147 -0.634284 0.819571 -0.0776717 -0.567689 182 154 146
