ply
format ascii 1.0
element vertex 692
property float x
property float y
property float z
property float nx
property float ny
property float nz
property uchar diffuse_red
property uchar diffuse_green
property uchar diffuse_blue
end_header
-0.316119 -0.473265 -0.401018 -0.681443 0.713853 -0.161402 80 66 62
-0.317513 -0.454496 -0.391196 -0.739418 0.476981 -0.475132 158 124 105
-0.30968 -0.436842 -0.392006 -0.253934 0.367762 -0.894578 179 147 132
-0.315308 -0.411291 -0.3795 -0.625697 0.233827 -0.744197 181 150 137
-0.307139 -0.383583 -0.384385 -0.561696 0.24917 -0.788931 180 152 142
-0.307018 -0.38248 -0.384575 -0.570452 0.306839 -0.761862 180 151 142
-0.307546 -0.354012 -0.377895 -0.530657 0.245338 -0.811303 176 148 141
-0.307522 -0.351938 -0.37834 -0.447431 0.307972 -0.839618 176 148 141
-0.300026 -0.337246 -0.377006 -0.387163 0.32048 -0.864521 117 100 122
-0.307764 -0.324269 -0.369274 -0.415337 0.296206 -0.860091 167 142 140
-0.300443 -0.305719 -0.369178 -0.193575 0.242577 -0.950624 99 87 116
-0.302587 -0.279124 -0.361538 -0.247664 0.174735 -0.952958 124 110 124
-0.302867 -0.265023 -0.35583 -0.392746 0.331756 -0.857722 124 111 124
-0.295525 -0.265655 -0.359719 -0.186743 0.263676 -0.946363 69 63 104
-0.295424 -0.246591 -0.355166 -0.670345 0.364532 -0.64634 62 58 102
-0.295716 -0.249267 -0.354511 -0.46847 0.329965 -0.819548 65 61 104
-0.297917 -0.2271 -0.346238 -0.23609 0.319043 -0.917863 60 54 97
-0.303684 -0.236957 -0.347021 -0.186776 0.290687 -0.938411 114 104 120
-0.298604 -0.202482 -0.337058 -0.153982 0.34008 -0.927705 42 38 89
-0.292059 -0.189705 -0.33394 -0.280044 0.254165 -0.92573 32 30 89
-0.299844 -0.177632 -0.328954 -0.193493 0.303897 -0.932849 37 34 93
-0.290166 -0.15242 -0.323924 -0.280196 0.264431 -0.922804 40 35 88
-0.295548 -0.133505 -0.318468 -0.225168 0.295084 -0.928561 58 36 45
-0.28889 -0.121896 -0.315127 -0.263846 0.34742 -0.899825 63 45 46
-0.296348 -0.110272 -0.309166 -0.289298 0.241078 -0.926385 140 118 112
-0.285721 -0.0839572 -0.304504 -0.234604 0.209904 -0.949159 61 58 39
-0.293507 -0.0720991 -0.299393 -0.207852 0.271705 -0.939667 53 52 35
-0.286276 -0.0582546 -0.297508 -0.249087 0.258128 -0.933449 58 56 37
-0.287368 -0.0321743 -0.291587 -0.237326 0.360382 -0.90211 75 76 49
-0.285587 -0.0104717 -0.284579 -0.216943 0.252317 -0.943012 33 32 94
-0.285647 0.012902 -0.276801 -0.38314 0.391818 -0.83647 33 34 99
-0.276735 0.0277456 -0.273059 -0.382446 0.436134 -0.814569 40 39 94
-0.281657 0.0364114 -0.26462 -0.37232 0.690401 -0.620261 62 53 64
-0.280641 0.0370383 -0.267163 -0.627594 0.553342 -0.547666 67 61 79
-0.276674 0.0587756 -0.252693 -0.659114 0.430575 -0.616581 62 51 48
-0.279835 0.0564598 -0.253553 -0.659323 0.489729 -0.57049 65 57 55
-0.282562 0.0695817 -0.243803 -0.410617 0.352986 -0.840711 134 113 105
-0.278989 0.0924669 -0.241816 0.0101661 0.0885105 -0.996023 127 104 95
-0.280544 0.106233 -0.228893 -0.429527 0.159741 -0.888813 128 105 97
-0.273937 0.128819 -0.232433 -0.632578 0.0964343 -0.76847 139 112 99
-0.272025 0.160046 -0.227115 -0.617144 0.104293 -0.779907 150 121 107
-0.273297 0.187226 -0.223696 -0.343833 0.199501 -0.917594 130 114 122
-0.267352 0.198235 -0.22083 -0.214589 0.35649 -0.909322 47 49 101
-0.274119 0.210411 -0.217525 -0.308914 0.288853 -0.906166 43 50 106
-0.267744 0.225353 -0.213075 -0.277727 0.00852476 -0.960622 24 31 103
-0.268756 0.244027 -0.202716 -0.0211514 0.404688 -0.91421 21 30 108
-0.268437 0.258608 -0.194507 -0.154064 0.571564 -0.805964 26 29 100
-0.262497 0.26907 -0.190773 -0.159772 0.622046 -0.766507 85 69 87
-0.268052 0.276035 -0.184521 -0.130497 0.604477 -0.785861 105 75 76
-0.2628 0.283782 -0.178988 -0.138106 0.606497 -0.783 160 82 64
-0.265302 0.291725 -0.171173 -0.0837191 0.705815 -0.703432 151 61 41
-0.263117 0.298113 -0.165095 -0.087517 0.68204 -0.72606 147 54 35
-0.263176 0.312155 -0.150309 -0.12915 0.750927 -0.647633 59 85 52
-0.257054 0.319391 -0.142583 -0.0778111 0.792747 -0.604564 71 95 65
-0.263355 0.32481 -0.133535 -0.0666032 0.828576 -0.555901 50 74 47
-0.257382 0.331445 -0.125051 0.00753077 0.822478 -0.568748 64 94 66
-0.263756 0.337568 -0.116816 -0.0560923 0.812564 -0.580167 145 152 135
-0.258816 0.342573 -0.107166 -0.0267389 0.899827 -0.435428 150 145 149
-0.260077 0.350454 -0.0893049 -0.375252 0.670687 -0.639817 139 134 141
-0.255687 0.357864 -0.0663714 0.132526 0.926018 -0.35345 116 118 135
-0.252649 0.3596 -0.0545078 0.148534 0.987965 0.0431611 129 133 153
-0.25237 0.362668 -0.0557712 0.118958 0.965099 0.23331 125 129 149
-0.257398 0.357697 -0.0365913 0.0190456 0.986755 0.161096 154 153 166
-0.260337 0.360424 -0.0464146 -0.0062278 0.984295 0.176425 145 146 161
-0.256007 0.35576 -0.0257681 0.0116912 0.999349 0.0341077 180 178 192
-0.25393 0.355515 -0.0143543 0.0063176 0.999942 0.00875778 113 114 161
-0.251753 0.355456 -0.00373305 0.00930082 0.999953 -0.00283735 27 37 130
-0.259894 0.355416 0.0035062 0.01788 0.999807 0.00822994 27 37 113
-0.255566 0.355503 0.0166137 0.0893876 0.99322 -0.0743263 58 71 115
-0.255817 0.355463 0.0156814 0.0180838 0.999661 -0.0187541 49 63 114
-0.251067 0.356018 0.0378679 0.0159982 0.999865 -0.00371531 118 135 64
-0.25345 0.355969 0.0272167 0.0653897 0.99655 -0.0511247 101 119 85
-0.248747 0.355861 0.0485877 -0.0214503 0.999636 0.0163653 109 124 53
-0.255356 0.356252 0.066556 0.0167515 0.999711 -0.0172407 120 139 57
-0.257568 0.355742 0.0558962 0.00145392 0.999778 0.0210298 120 137 55
-0.253903 0.356084 0.0790461 -0.0367015 0.999155 -0.0185114 122 139 58
-0.251525 0.356438 0.0903159 -0.0939788 0.995273 0.0244822 119 134 63
-0.249335 0.356003 0.101479 -0.0671108 0.995527 0.0664939 128 134 101
-0.246932 0.355288 0.112576 -0.0148441 0.996242 0.0853298 145 145 147
-0.25534 0.35323 0.12048 -0.0571799 0.996709 0.0574572 143 143 141
-0.252928 0.352785 0.131916 -0.0139405 0.990866 0.134131 148 147 158
-0.250664 0.35099 0.142494 -0.0138087 0.987625 0.156227 145 146 159
-0.33674 -0.635009 -0.433405 -0.437706 0.268404 -0.858121 26 16 15
-0.337577 -0.60367 -0.424035 -0.335363 0.294962 -0.894723 50 36 35
-0.329433 -0.585095 -0.423918 -0.36436 0.265017 -0.892753 109 88 84
-0.330022 -0.554266 -0.41256 -0.484156 0.26348 -0.834369 97 76 71
-0.337655 -0.54461 -0.400325 -0.456994 0.337469 -0.822966 29 20 17
-0.332626 -0.506983 -0.398201 -0.753421 0.627964 -0.194985 26 20 18
-0.32846 -0.448562 -0.375737 -0.337204 0.140459 -0.930895 115 85 72
-0.320859 -0.432012 -0.374653 0.00973237 0.158819 -0.98726 174 139 122
-0.323016 -0.398063 -0.372338 -0.599746 0.219976 -0.76936 176 143 126
-0.315378 -0.377318 -0.374931 -0.57853 0.205779 -0.789277 184 153 142
-0.315445 -0.345184 -0.36788 -0.583738 0.201485 -0.786545 183 154 143
-0.316883 -0.313962 -0.360546 -0.567981 0.188064 -0.801268 182 154 145
-0.309618 -0.295223 -0.361603 -0.3507 0.182336 -0.918566 166 143 138
-0.317628 -0.285447 -0.352954 -0.28005 0.290733 -0.914902 179 153 143
-0.310576 -0.254237 -0.348665 -0.301861 0.321495 -0.897508 145 129 130
-0.305503 -0.215149 -0.340775 -0.19616 0.35149 -0.91541 103 94 116
-0.313409 -0.204532 -0.33377 -0.252807 0.282167 -0.925457 123 111 122
-0.306654 -0.192324 -0.330804 -0.22432 0.277311 -0.934227 46 42 92
-0.307403 -0.165718 -0.323239 -0.293296 0.310548 -0.904178 29 30 92
-0.300582 -0.152323 -0.321131 -0.310231 0.320444 -0.895027 32 29 87
-0.308756 -0.139565 -0.3151 -0.276821 0.305078 -0.911206 57 35 58
-0.303079 -0.123572 -0.31109 -0.311825 0.302288 -0.900771 46 31 30
-0.299872 -0.0857712 -0.300742 -0.274189 0.281747 -0.919477 78 70 53
-0.300022 -0.0603022 -0.294477 -0.214461 0.206932 -0.954561 54 59 38
-0.293882 -0.0468382 -0.292313 -0.279081 0.250537 -0.927009 50 51 31
-0.300835 -0.0342835 -0.287924 -0.21423 0.255323 -0.942823 62 75 45
-0.299185 -0.0133089 -0.281437 -0.239208 0.255338 -0.936794 37 35 87
-0.292887 -0.00218546 -0.277924 -0.184571 0.335632 -0.923734 48 46 104
-0.298405 0.0103563 -0.271556 -0.375347 0.484496 -0.790176 54 50 94
-0.288796 0.0247561 -0.26776 -0.365016 0.566824 -0.738562 67 60 84
-0.293681 0.0320474 -0.258686 -0.361722 0.532333 -0.765362 38 31 32
-0.286617 0.0442342 -0.255894 -0.374296 0.412465 -0.830527 57 48 46
-0.292695 0.0529857 -0.246642 -0.414662 0.403437 -0.815656 125 107 102
-0.285196 0.0750327 -0.241555 -0.387914 0.272103 -0.880615 129 108 102
-0.292673 0.0810759 -0.234478 -0.0231989 0.355907 -0.934233 86 73 75
-0.28788 0.117117 -0.225411 -0.288902 0.0167969 -0.957211 93 75 74
-0.281151 0.141655 -0.22173 -0.37348 0.232965 -0.897909 127 101 90
-0.279381 0.170129 -0.221142 -0.581755 0.0683024 -0.810491 152 122 107
-0.28617 0.173077 -0.217455 -0.515451 0.175944 -0.838662 145 115 100
-0.279809 0.198114 -0.219328 -0.353134 0.207908 -0.912179 125 112 123
-0.280213 0.223482 -0.211843 -0.413728 0.328948 -0.848894 40 53 110
-0.274334 0.234439 -0.208124 -0.252029 0.286573 -0.924314 30 37 107
-0.27929 0.257282 -0.192595 -0.199425 0.524097 -0.82798 24 30 109
-0.273829 0.266802 -0.189482 -0.193263 0.559625 -0.805897 30 28 87
-0.279141 0.274118 -0.183428 -0.169372 0.604392 -0.778475 55 44 76
-0.271814 0.283782 -0.177674 -0.153913 0.61674 -0.771972 153 116 105
-0.277553 0.290626 -0.170745 -0.107075 0.69828 -0.707771 147 102 84
-0.271225 0.298224 -0.163838 -0.0714676 0.698058 -0.712465 115 51 33
-0.277209 0.30502 -0.15664 -0.0890182 0.727462 -0.680348 87 90 71
-0.26923 0.318235 -0.141724 -0.0649089 0.75708 -0.650089 69 106 64
-0.269731 0.330984 -0.125384 -0.0706472 0.814136 -0.576361 62 99 61
-0.271044 0.341877 -0.107123 -0.0664416 0.889917 -0.451258 153 146 147
-0.271634 0.352792 -0.0892487 -0.0801809 0.865055 -0.495228 133 129 139
-0.267268 0.358118 -0.0787988 0.32177 0.946771 0.00936144 112 114 128
-0.267243 0.358612 -0.078878 0.273915 0.959547 0.0651066 112 114 129
-0.265478 0.358133 -0.0674243 0.0152597 0.965244 -0.260904 113 113 127
-0.271057 0.360096 -0.0499963 -0.116033 0.976435 0.181965 137 136 149
-0.268722 0.358512 -0.0390293 -0.0820955 0.967629 0.238653 146 145 156
-0.26433 0.355433 -0.0177162 -0.00854071 0.999622 0.0261547 165 163 186
-0.266324 0.356138 -0.0284071 -0.00817202 0.998143 0.0603615 172 170 180
-0.262084 0.35537 -0.00710555 -0.000682156 0.999985 -0.00541825 50 52 113
-0.269996 0.355711 6.06772e-05 0.00356501 0.999819 -0.0186758 47 55 91
-0.263897 0.355763 0.0231069 0.00965151 0.999942 -0.00465752 115 134 67
-0.266155 0.355566 0.0122908 0.00626909 0.999961 -0.00607419 88 105 87
-0.261647 0.355801 0.0345053 0.0116111 0.999924 0.00411964 122 140 57
-0.259098 0.355855 0.0451318 -0.00919279 0.999947 -0.00445482 121 138 56
-0.267784 0.355487 0.0525734 0.00155662 0.99951 0.0312859 104 119 49
-0.267886 0.35544 0.0655812 0.0201965 0.999759 0.00862748 120 140 57
-0.264319 0.355957 0.0755213 0.030628 0.999488 0.0093122 122 141 57
-0.259978 0.355801 0.0982126 -0.070111 0.994463 0.0782752 118 135 60
-0.257704 0.354886 0.108944 -0.132608 0.990914 0.0224518 124 133 84
-0.266092 0.352868 0.116948 -0.0701087 0.996074 0.0540437 123 134 76
-0.263734 0.352343 0.128013 -0.0591365 0.99685 0.0528559 140 143 133
-0.264024 0.353137 0.12845 -0.0447599 0.994705 0.0925083 140 142 132
-0.261575 0.351401 0.13952 0.000858266 0.989402 0.145198 146 146 156
-0.259125 0.349357 0.150543 0.020174 0.986467 0.162713 144 144 157
-0.345794 -0.619113 -0.426943 -0.337373 0.240325 -0.910177 28 17 15
-0.346835 -0.588264 -0.417076 -0.421141 0.201875 -0.884244 27 16 15
-0.351769 -0.590446 -0.415669 -0.0992418 0.333387 -0.937552 34 22 20
-0.34203 -0.576939 -0.411553 -0.577853 0.477287 -0.662029 29 17 17
-0.346974 -0.558448 -0.40282 -0.628347 0.44199 -0.640176 28 20 17
-0.332527 -0.420775 -0.36819 -0.477412 0.174645 -0.861149 118 87 74
-0.331944 -0.390736 -0.359783 -0.336771 0.221133 -0.915252 157 123 105
-0.329738 -0.35112 -0.356058 -0.575337 0.200493 -0.792962 176 142 127
-0.324696 -0.301591 -0.353013 -0.412742 0.221014 -0.883626 184 155 144
-0.325355 -0.264433 -0.342819 -0.57375 0.180597 -0.798871 183 155 145
-0.31858 -0.245521 -0.342221 -0.0854802 0.366183 -0.926609 166 144 139
-0.319281 -0.213892 -0.336452 -0.312512 0.292584 -0.903732 153 134 132
-0.326777 -0.237006 -0.333688 -0.153339 0.269942 -0.950589 179 152 144
-0.321112 -0.195013 -0.327035 -0.31868 0.238257 -0.917429 141 124 129
-0.321507 -0.195017 -0.32716 -0.304764 0.250673 -0.918849 142 126 129
-0.314222 -0.179065 -0.325379 -0.176262 0.373191 -0.910857 65 59 101
-0.315499 -0.153588 -0.316413 -0.389519 0.220617 -0.894205 32 29 88
-0.317242 -0.125389 -0.307448 -0.264385 0.318804 -0.9102 45 30 28
-0.310534 -0.112484 -0.304995 -0.299415 0.275793 -0.913394 128 108 103
-0.31835 -0.100567 -0.299404 -0.267111 0.248197 -0.931155 176 149 136
-0.306794 -0.0763023 -0.293939 -0.169743 0.446013 -0.878783 66 75 47
-0.314318 -0.0631982 -0.290058 -0.274309 0.255908 -0.926966 59 76 41
-0.30537 -0.000923008 -0.274241 -0.366675 0.382982 -0.847864 85 79 114
-0.300881 0.0187398 -0.260871 -0.334515 0.605378 -0.72223 39 32 35
-0.306875 0.0255811 -0.251662 -0.330515 0.566975 -0.754519 62 55 55
-0.30004 0.0377278 -0.250187 -0.471243 0.479815 -0.740072 108 96 91
-0.305666 0.0518151 -0.242381 -0.204283 0.143423 -0.968349 120 98 94
-0.298612 0.0716603 -0.239664 -0.202775 0.161267 -0.965855 91 79 84
-0.300031 0.0926154 -0.231421 -0.0396498 0.307326 -0.950777 65 58 65
-0.293973 0.103973 -0.227827 -0.0236996 0.316426 -0.948321 75 63 65
-0.295818 0.124575 -0.219554 -0.0202013 0.101923 -0.994588 64 51 53
-0.293735 0.14879 -0.215404 -0.169261 0.189982 -0.967087 131 110 104
-0.293198 0.192383 -0.211768 -0.525231 0.00881194 -0.850915 163 134 118
-0.293054 0.22205 -0.207835 -0.264779 0.251743 -0.930869 48 55 100
-0.287181 0.232805 -0.204786 -0.238415 0.355407 -0.903794 42 58 112
-0.290041 0.256737 -0.191729 -0.194736 0.443496 -0.874865 35 57 119
-0.284648 0.265871 -0.188093 -0.154138 0.543636 -0.825046 35 45 112
-0.284601 0.281426 -0.177512 -0.138225 0.610172 -0.780118 107 84 82
-0.283223 0.297317 -0.163461 -0.11618 0.684636 -0.719567 83 55 46
-0.282869 0.31194 -0.148457 -0.113611 0.718759 -0.685914 133 143 119
-0.276278 0.324583 -0.133656 -0.0799513 0.824357 -0.560396 65 106 60
-0.281917 0.330414 -0.124913 -0.134627 0.823164 -0.551613 51 95 55
-0.280642 0.342726 -0.107793 -0.184131 0.751175 -0.633901 162 154 151
-0.277565 0.344781 -0.0973908 -0.0978229 0.924778 -0.367718 139 131 137
-0.277757 0.354499 -0.082079 -0.240795 0.956711 -0.163467 132 128 137
-0.273514 0.358753 -0.0604633 -0.217543 0.975381 0.0361521 124 123 136
-0.275757 0.356853 -0.0710468 -0.229132 0.955623 -0.185153 126 122 133
-0.276933 0.355716 -0.0317395 -0.0314192 0.998787 0.0379002 162 158 167
-0.279182 0.356736 -0.0424748 -0.151054 0.983964 0.0948622 139 136 145
-0.274732 0.355319 -0.0210774 -0.0204206 0.999791 0.000802871 178 174 185
-0.280317 0.3556 -0.00333336 -0.000664465 0.999535 -0.0304776 62 65 61
-0.278104 0.355838 0.00725702 0.00909295 0.999951 -0.0036341 86 96 55
-0.274278 0.355687 0.019551 0.00246092 0.999768 -0.0214011 116 132 58
-0.272023 0.355959 0.03109 -0.0281728 0.999298 -0.0247069 121 138 56
-0.269901 0.355684 0.0418237 -0.0145042 0.999891 0.0027078 114 129 54
-0.278406 0.354918 0.0623005 0.00556279 0.999444 0.0328904 104 119 53
-0.276915 0.355604 0.072947 -0.0176029 0.999678 -0.018245 122 140 58
-0.274296 0.354586 0.0837693 -0.0742318 0.989866 0.121063 124 143 56
-0.273534 0.35612 0.0834055 -0.00638087 0.996061 -0.0884377 122 141 56
-0.270702 0.355425 0.0947852 -0.0905704 0.994717 0.0483236 121 140 56
-0.268407 0.354401 0.105553 -0.107425 0.993004 0.0490324 121 139 57
-0.277029 0.353915 0.114581 -0.0725666 0.994617 0.0739645 120 138 58
-0.275042 0.352572 0.124578 -0.111884 0.993235 0.0310833 122 135 67
-0.272002 0.351988 0.13602 -0.0363529 0.995213 0.0907149 137 140 125
-0.270222 0.350275 0.147384 0.0300807 0.989064 0.144389 143 143 152
-0.359534 -0.606178 -0.419061 -0.345783 0.226405 -0.91059 35 23 20
-0.35681 -0.574024 -0.405323 0.017976 0.475844 -0.879346 39 28 25
-0.356775 -0.574974 -0.405693 -0.00344254 0.463846 -0.885909 39 28 25
-0.352982 -0.542853 -0.388385 -0.586244 0.245113 -0.772164 28 21 19
-0.338645 -0.339853 -0.34573 -0.446053 0.200261 -0.872315 156 122 105
-0.333001 -0.288309 -0.341955 -0.63221 0.217486 -0.743647 183 153 139
-0.340753 -0.273835 -0.332079 -0.601212 0.233808 -0.764119 178 146 130
-0.333697 -0.253628 -0.334943 -0.377872 0.243889 -0.893157 185 155 144
-0.334868 -0.223533 -0.330594 -0.142006 0.305044 -0.941691 182 155 145
-0.327987 -0.20952 -0.328123 -0.108126 0.259185 -0.959756 171 147 142
-0.336441 -0.199748 -0.319698 -0.385105 0.260214 -0.885428 181 153 145
-0.336138 -0.199468 -0.319673 -0.361694 0.249003 -0.898429 180 153 144
-0.328549 -0.183366 -0.321598 -0.376849 0.232765 -0.896552 163 142 139
-0.329768 -0.157137 -0.313178 -0.300705 0.259583 -0.917711 111 97 122
-0.323706 -0.14134 -0.310279 -0.352634 0.213173 -0.911157 60 36 57
-0.331756 -0.125636 -0.304995 -0.119308 0.326545 -0.937621 65 47 44
-0.325015 -0.114264 -0.300814 -0.312918 0.258345 -0.913969 131 111 107
-0.327333 -0.0886491 -0.293946 -0.282824 0.273035 -0.919491 174 150 133
-0.320875 -0.0767371 -0.292058 -0.25479 0.305209 -0.917567 85 92 60
-0.322537 -0.0496569 -0.282787 -0.141743 0.169561 -0.975273 55 76 43
-0.316037 -0.0334999 -0.284658 -0.262478 0.362866 -0.89411 62 76 50
-0.312319 -0.0145473 -0.277885 -0.343973 0.367208 -0.864199 80 74 105
-0.310431 0.00631213 -0.264457 -0.332726 0.584127 -0.74033 59 53 68
-0.317502 -0.00249398 -0.270331 -0.432708 0.489276 -0.757214 84 76 100
-0.313743 0.0157594 -0.256204 -0.329071 0.564576 -0.756945 34 29 28
-0.315122 0.0151685 -0.256153 -0.328159 0.57691 -0.747988 33 28 28
-0.319178 0.0231156 -0.247241 -0.323974 0.595001 -0.735537 109 100 98
-0.312133 0.0353591 -0.245254 -0.426007 0.431999 -0.794918 139 121 115
-0.31719 0.0504703 -0.239438 -0.291281 0.118706 -0.949245 88 69 66
-0.310222 0.0659688 -0.238771 -0.193718 0.0522182 -0.979667 119 100 97
-0.306088 0.0807388 -0.23491 -0.0104235 0.322775 -0.946419 70 64 72
-0.313648 0.0904251 -0.231129 0.0857931 0.319969 -0.943535 68 64 72
-0.307488 0.102243 -0.22819 0.0723308 0.257827 -0.963479 63 57 65
-0.302107 0.116336 -0.226869 -0.248259 0.242316 -0.937897 65 55 59
-0.309538 0.125151 -0.221562 0.0437537 0.292655 -0.955217 67 53 55
-0.30339 0.13645 -0.217915 -0.0173377 0.232368 -0.972473 109 94 92
-0.304828 0.156973 -0.210026 -0.291796 0.284055 -0.913328 101 83 81
-0.305671 0.156686 -0.209769 -0.284983 0.278544 -0.917168 95 78 77
-0.299589 0.170331 -0.210109 -0.477013 0.180513 -0.860159 137 112 99
-0.299405 0.231984 -0.203483 -0.257624 0.244408 -0.934823 30 38 98
-0.294216 0.24785 -0.196649 -0.168364 0.435579 -0.884265 30 52 111
-0.300182 0.256216 -0.191369 -0.139774 0.46325 -0.875136 24 42 106
-0.30028 0.272022 -0.181532 -0.116878 0.566445 -0.815769 37 49 95
-0.295353 0.280491 -0.17661 -0.0995896 0.589225 -0.801807 117 110 119
-0.290371 0.288439 -0.170999 -0.125491 0.601802 -0.788724 127 103 96
-0.29594 0.294318 -0.163735 -0.125412 0.703561 -0.699481 164 146 140
-0.288913 0.303985 -0.155435 -0.131573 0.722386 -0.678857 149 138 120
-0.2947 0.310266 -0.147281 -0.12444 0.729373 -0.672704 157 154 136
-0.288505 0.317866 -0.139894 -0.120841 0.754136 -0.645505 110 129 97
-0.28844 0.323728 -0.132671 -0.100031 0.811759 -0.575362 63 105 59
-0.294791 0.329401 -0.122586 -0.163827 0.844106 -0.510535 47 95 55
-0.287289 0.335727 -0.115481 -0.134681 0.84701 -0.514234 94 118 91
-0.291788 0.339738 -0.105723 -0.157143 0.904988 -0.395352 156 155 147
-0.284881 0.347993 -0.0945979 -0.170937 0.858054 -0.484277 139 130 133
-0.289515 0.350152 -0.0837148 -0.171495 0.918841 -0.355416 136 127 131
-0.290475 0.352796 -0.0708503 -0.336124 0.932682 -0.130869 136 128 135
-0.288339 0.354574 -0.0600431 -0.279941 0.958619 -0.051788 136 129 136
-0.28611 0.355975 -0.0495751 -0.219224 0.975601 -0.0120316 135 130 137
-0.28727 0.354844 -0.0350133 -0.0958852 0.995116 -0.02344 161 156 163
-0.285008 0.35457 -0.0243797 -0.0389502 0.998849 -0.0279988 177 172 178
-0.282805 0.355029 -0.0138543 -0.0245986 0.999356 -0.026111 115 111 115
-0.280641 0.355459 -0.003301 -0.00426438 0.999494 -0.031525 62 65 59
-0.288717 0.356013 0.00379655 -0.0155039 0.998594 -0.0506824 110 113 56
-0.286877 0.35549 0.0133374 -0.0347386 0.999083 -0.0250614 105 116 51
-0.284253 0.355345 0.0407245 -0.0184406 0.999812 -0.00602033 99 111 51
-0.286512 0.355698 0.0299736 -0.0228548 0.999607 0.0162435 112 129 58
-0.282067 0.355523 0.051474 0.0048486 0.999114 -0.0418171 77 84 39
-0.283974 0.356037 0.0799915 -0.0104065 0.999928 -0.00594401 120 140 56
-0.283933 0.355936 0.0800371 -0.0100785 0.999949 0.000141728 120 140 56
-0.285669 0.357411 0.0689908 -0.0155722 0.989018 -0.146971 120 135 61
-0.285726 0.357532 0.0689451 -0.0156684 0.987591 -0.156262 120 135 61
-0.282314 0.353959 0.0888811 -0.104651 0.993738 0.0391478 125 144 56
-0.279024 0.353643 0.102203 -0.0959591 0.99509 0.0242605 122 141 57
-0.283136 0.351165 0.131862 -0.141527 0.989897 -0.00860386 123 138 64
-0.280495 0.351015 0.143714 -0.0594033 0.995425 0.0748429 135 140 119
-0.279479 0.348354 0.155535 -0.0130767 0.991601 0.128676 140 140 151
-0.34862 -0.263798 -0.321768 -0.415203 0.275426 -0.867033 162 129 113
-0.341568 -0.245631 -0.324108 -0.312913 0.290217 -0.904356 181 151 138
-0.344041 -0.224938 -0.319099 -0.60951 0.192631 -0.76902 182 151 139
-0.34351 -0.189186 -0.311946 -0.591448 0.28259 -0.755203 184 156 147
-0.336669 -0.171049 -0.314911 -0.393606 0.236675 -0.88829 176 150 146
-0.338493 -0.142274 -0.307695 -0.250917 0.250661 -0.934991 163 135 129
-0.339436 -0.115731 -0.298747 -0.199829 0.27911 -0.939236 161 138 130
-0.333881 -0.102704 -0.29499 -0.273487 0.131736 -0.952812 180 154 143
-0.335002 -0.0785368 -0.289344 -0.238212 0.298478 -0.924211 154 138 118
-0.32847 -0.0655428 -0.287008 -0.197149 0.293125 -0.935527 70 84 51
-0.332344 -0.0393367 -0.278916 -0.191207 0.1775 -0.965367 58 75 46
-0.325461 -0.0241616 -0.277605 -0.328078 0.357991 -0.87419 50 48 65
-0.33215 -0.0140916 -0.270802 -0.341869 0.368985 -0.864277 123 115 129
-0.322161 0.005434 -0.260846 -0.326168 0.591591 -0.737316 40 33 37
-0.326123 0.0135493 -0.252011 -0.321921 0.592468 -0.738477 44 38 38
-0.321167 0.0230443 -0.246243 -0.32307 0.588296 -0.741305 119 108 106
-0.323601 0.0362737 -0.240283 -0.177749 0.224788 -0.958058 131 112 107
-0.325475 0.0645106 -0.236137 -0.180886 0.0562693 -0.981893 75 58 55
-0.319543 0.0796533 -0.235885 -0.0249061 0.291168 -0.956348 135 118 115
-0.321157 0.10265 -0.228958 -0.0249382 0.241179 -0.97016 65 60 69
-0.3152 0.114955 -0.225777 -0.0865985 0.371369 -0.924438 57 48 54
-0.322315 0.124646 -0.221213 -0.056629 0.400512 -0.91454 106 92 92
-0.316531 0.136055 -0.218207 -0.057864 0.347007 -0.936076 143 127 125
-0.317987 0.154771 -0.207579 -0.0849634 0.424301 -0.901526 67 58 62
-0.310548 0.146572 -0.213568 -0.121439 0.469132 -0.874739 129 117 120
-0.31228 0.1653 -0.203882 -0.363937 0.350433 -0.862987 83 68 65
-0.30709 0.188632 -0.203916 -0.498391 -0.00191125 -0.86695 144 114 98
-0.313431 0.221466 -0.202234 -0.339078 0.111566 -0.93412 154 131 139
-0.305669 0.246819 -0.195308 -0.294754 0.450245 -0.842852 26 32 103
-0.311577 0.251969 -0.182046 -0.380557 -0.0769251 -0.921552 19 29 107
-0.305799 0.26349 -0.185695 -0.0967898 0.590862 -0.800946 24 34 102
-0.30623 0.279156 -0.176049 -0.0331322 0.665003 -0.746106 74 69 83
-0.301283 0.286432 -0.169871 -0.0385171 0.616898 -0.7861 155 143 143
-0.306656 0.290347 -0.166418 -0.0725044 0.673979 -0.735184 153 142 143
-0.3009 0.298435 -0.159729 -0.0883047 0.720943 -0.687345 170 154 147
-0.300934 0.316628 -0.138627 -0.0952539 0.782622 -0.615166 126 139 116
-0.298758 0.3347 -0.11334 -0.179116 0.871614 -0.456298 54 82 58
-0.302556 0.339182 -0.104253 -0.155303 0.911502 -0.380849 103 105 98
-0.296611 0.344785 -0.0908873 -0.136372 0.949351 -0.283082 153 143 144
-0.302763 0.345937 -0.073144 0.0759321 0.994114 -0.0772765 145 136 139
-0.298364 0.351036 -0.0523507 -0.102732 0.976682 -0.188513 147 139 143
-0.300194 0.349528 -0.0629625 -0.0564995 0.982187 -0.179213 140 131 135
-0.296314 0.353336 -0.0429808 -0.0934243 0.990599 -0.0999306 163 155 159
-0.297299 0.352706 -0.0527324 -0.111469 0.990306 -0.0828654 144 136 141
-0.299402 0.354494 -0.0211861 0.0283824 0.959886 -0.278951 132 107 109
-0.290875 0.355322 -0.00673986 -0.0172381 0.998887 -0.0438861 93 91 53
-0.297038 0.355386 0.0101254 -0.0233719 0.999194 -0.0326083 95 103 46
-0.299775 0.355563 0.0161132 0.0202357 0.999564 -0.0214788 95 109 50
-0.294674 0.355738 0.0373076 0.0240963 0.99957 0.0166988 74 83 43
-0.292451 0.355676 0.0480363 0.0121272 0.999899 -0.00749098 81 90 43
-0.290381 0.355041 0.0588832 -0.0351104 0.999201 0.0191163 98 111 48
-0.29816 0.354597 0.0660933 -0.0106728 0.997526 0.0694929 118 137 55
-0.295306 0.354841 0.0768705 0.0129333 0.999096 0.0405021 119 139 55
-0.295454 0.354814 0.0768594 0.017309 0.998931 0.0428571 119 139 55
-0.291336 0.352275 0.0987316 -0.104063 0.994565 -0.00336475 125 143 56
-0.294654 0.353464 0.0885205 -0.0849374 0.994652 0.058766 126 144 54
-0.297481 0.352005 0.117605 -0.0214525 0.996655 0.0788581 123 142 58
-0.288862 0.353104 0.109932 -0.102079 0.990994 0.0866575 126 145 57
-0.294327 0.352271 0.128495 -0.00757458 0.996011 0.0889072 123 142 59
-0.289445 0.34914 0.151531 0.00265617 0.989463 0.144757 128 135 112
-0.29203 0.350766 0.140153 -0.00195275 0.993821 0.11097 123 138 69
-0.290311 0.349276 0.151863 0.00819451 0.990949 0.133987 127 134 110
-0.288106 0.34728 0.163359 -0.00160504 0.987192 0.159529 128 130 141
-0.352175 -0.209458 -0.309612 -0.659729 0.27741 -0.698428 175 143 126
-0.358755 -0.19319 -0.300745 -0.732186 0.282211 -0.619887 164 132 115
-0.358955 -0.19379 -0.299577 -0.677367 0.233409 -0.697635 164 131 115
-0.354016 -0.154267 -0.29627 -0.611158 0.179561 -0.770872 181 152 139
-0.345928 -0.131987 -0.297629 -0.465523 0.265975 -0.844125 179 154 145
-0.349187 -0.106166 -0.290008 -0.38317 0.322104 -0.865696 188 161 152
-0.34177 -0.0907932 -0.290816 -0.174918 0.263456 -0.948681 182 158 146
-0.343103 -0.066969 -0.283441 -0.289845 0.213821 -0.932883 114 113 85
-0.349604 -0.0789014 -0.286508 -0.195743 0.264352 -0.944353 183 159 148
-0.337243 -0.0495736 -0.280734 -0.221866 0.180902 -0.958149 57 78 45
-0.345368 -0.0391967 -0.275891 -0.282115 0.271346 -0.920207 75 85 59
-0.338814 -0.0258315 -0.274242 -0.266248 0.415208 -0.869894 75 72 81
-0.339897 -0.00457585 -0.262377 -0.293668 0.475933 -0.829004 61 53 56
-0.333117 0.00530377 -0.257538 -0.326817 0.670998 -0.665546 31 27 27
-0.339632 0.0130112 -0.248598 -0.284227 0.628594 -0.723936 69 62 61
-0.340772 0.0114616 -0.24766 -0.255719 0.648445 -0.717027 68 62 61
-0.33384 0.0206241 -0.242323 -0.293329 0.572265 -0.765814 139 126 123
-0.336561 0.0348183 -0.23759 -0.179361 0.227671 -0.957077 102 87 86
-0.330698 0.0511279 -0.237283 -0.0888525 0.0812306 -0.992727 71 58 59
-0.333184 0.0774162 -0.235533 -0.0167308 0.233857 -0.972127 103 83 79
-0.327093 0.0896746 -0.232341 0.00845236 0.303157 -0.952903 139 123 120
-0.33414 0.101714 -0.228751 -0.148378 0.195042 -0.969507 121 106 106
-0.328186 0.11376 -0.225394 -0.0327901 0.381932 -0.923609 80 69 73
-0.329646 0.135075 -0.217636 -0.0873618 0.376067 -0.922465 149 133 130
-0.323659 0.145295 -0.212573 -0.0920265 0.471355 -0.877129 105 95 100
-0.330089 0.153723 -0.206633 -0.100062 0.45266 -0.886052 65 57 62
-0.324611 0.163552 -0.201919 -0.139469 0.432005 -0.891022 71 60 62
-0.321641 0.18489 -0.195366 -0.416567 0.028626 -0.908654 137 110 96
-0.319113 0.206117 -0.19896 -0.408283 0.0117625 -0.912779 163 132 115
-0.32148 0.233613 -0.198879 -0.294186 0.10793 -0.949634 68 60 108
-0.311401 0.270974 -0.180595 -0.0922836 0.587078 -0.804253 25 27 77
-0.317383 0.277926 -0.174615 -0.13156 0.611289 -0.780396 34 27 47
-0.312764 0.296811 -0.158985 -0.0520425 0.708521 -0.703769 151 140 141
-0.30794 0.304218 -0.151318 0.0456066 0.765806 -0.641452 170 161 153
-0.315031 0.310958 -0.14456 -0.033006 0.719809 -0.693387 159 148 145
-0.313226 0.315705 -0.138172 -0.0904812 0.737307 -0.669472 100 91 88
-0.31298 0.316019 -0.137612 -0.0854121 0.745772 -0.660702 95 86 82
-0.306027 0.323352 -0.129861 -0.130152 0.817453 -0.561099 53 75 51
-0.312723 0.327329 -0.120049 -0.0817243 0.84404 -0.530017 27 31 27
-0.310703 0.33351 -0.111848 -0.174946 0.862365 -0.475101 39 45 41
-0.306901 0.342439 -0.0942763 -0.127561 0.949847 -0.285516 146 134 146
-0.304876 0.344552 -0.083736 0.0864056 0.981192 -0.172615 156 148 155
-0.310887 0.34778 -0.0663246 0.0394141 0.9873 -0.153906 169 161 170
-0.308442 0.350165 -0.0559977 -0.0239204 0.988606 -0.148608 169 162 168
-0.306456 0.351773 -0.0455943 -0.0611188 0.988059 -0.141435 176 167 173
-0.304472 0.352905 -0.0348805 -0.0226415 0.990682 -0.134297 173 153 165
-0.304546 0.352903 -0.0348489 -0.0215956 0.990722 -0.134177 173 153 165
-0.310899 0.353995 -0.0172939 -0.0378662 0.993811 -0.10443 74 76 117
-0.308899 0.355217 -0.00647863 0.00157767 0.998875 -0.0473964 110 118 70
-0.306763 0.355472 0.00410928 0.00443568 0.999969 -0.0064524 107 116 49
-0.307901 0.355866 0.0233421 0.0126142 0.99992 -9.59389e-05 97 110 55
-0.305139 0.355778 0.0338854 -0.0177494 0.998828 0.0450319 68 78 37
-0.300769 0.355452 0.0554377 0.0150081 0.999559 0.025648 111 127 53
-0.302872 0.35565 0.0446905 0.0268993 0.999594 0.00938288 106 120 57
-0.308628 0.355677 0.062718 -0.0209986 0.999185 0.0344506 115 132 53
-0.304482 0.355042 0.0846015 -0.00674783 0.997965 0.063396 121 141 56
-0.30337 0.354534 0.0842992 -0.0271297 0.996874 0.0741986 121 140 55
-0.30571 0.355341 0.0733059 -0.0194131 0.998771 0.045619 119 139 54
-0.307185 0.355122 0.0737629 -0.0132758 0.999508 0.0284148 119 139 55
-0.301705 0.354398 0.09567 -0.0703636 0.99019 0.120718 121 140 56
-0.307784 0.352067 0.114655 0.222892 0.9741 0.0380469 135 149 73
-0.301261 0.350453 0.106981 0.158539 0.986601 0.0385255 121 141 57
-0.305187 0.351636 0.125646 0.0905604 0.994566 0.0513559 139 152 79
-0.302737 0.351715 0.136535 0.12479 0.99021 0.0625388 144 156 89
-0.29897 0.348381 0.159706 0.0620336 0.989984 0.126818 145 147 139
-0.305545 0.349343 0.178574 0.0840623 0.978921 0.186136 161 158 170
-0.364548 -0.176639 -0.289359 -0.611316 0.185214 -0.769408 148 117 101
-0.366105 -0.178872 -0.288254 -0.587808 0.171626 -0.790586 128 99 86
-0.368147 -0.158662 -0.282622 -0.67013 0.222456 -0.708124 132 101 88
-0.36036 -0.137818 -0.286716 -0.697207 0.265816 -0.665765 177 145 130
-0.355037 -0.124725 -0.286663 -0.581227 0.388802 -0.714848 185 157 146
-0.356155 -0.0941724 -0.285991 -0.169734 0.463871 -0.869491 187 162 151
-0.362713 -0.115446 -0.27861 -0.234352 0.300262 -0.92462 179 147 133
-0.357344 -0.0704097 -0.279618 -0.206583 0.306477 -0.929191 180 158 146
-0.351809 -0.0511444 -0.278574 -0.155983 0.222452 -0.962385 147 137 116
-0.352839 -0.0266733 -0.271027 -0.182837 0.435312 -0.881518 150 135 132
-0.346375 -0.0154827 -0.266846 -0.197948 0.417534 -0.886838 127 118 124
-0.35326 -0.00652883 -0.259298 -0.185656 0.518774 -0.834509 40 35 35
-0.34627 0.00320497 -0.253578 -0.240284 0.592429 -0.768955 28 25 24
-0.353359 0.0105768 -0.246056 -0.227856 0.643295 -0.730927 63 57 57
-0.351905 0.0115815 -0.245837 -0.227017 0.664437 -0.712029 73 67 67
-0.345961 0.0188441 -0.239392 -0.217481 0.510526 -0.831905 137 124 122
-0.34496 0.0201893 -0.239811 -0.23332 0.361193 -0.90283 141 125 121
-0.349379 0.0332094 -0.234995 -0.200797 0.244806 -0.948552 86 73 73
-0.339365 0.0624316 -0.234437 -0.12336 0.0787868 -0.98923 65 51 52
-0.347087 0.074128 -0.232781 -0.175941 0.136208 -0.974932 63 47 45
-0.340715 0.0871071 -0.231418 -0.0918425 0.136144 -0.986423 142 120 114
-0.341142 0.113062 -0.22536 -0.0639255 0.346937 -0.935707 84 73 75
-0.335266 0.123999 -0.22122 -0.0317971 0.423983 -0.905112 143 129 126
-0.342538 0.13368 -0.216217 -0.148829 0.44221 -0.884478 126 113 115
-0.335761 0.144355 -0.21178 -0.163965 0.428936 -0.888329 84 73 77
-0.336282 0.161364 -0.2001 -0.198932 0.596175 -0.777819 72 63 66
-0.330987 0.169522 -0.191743 -0.278869 0.272364 -0.920897 77 62 62
-0.335746 0.181733 -0.188935 -0.320209 0.107373 -0.941242 117 95 88
-0.329931 0.198706 -0.194319 -0.354172 -0.061686 -0.933144 150 119 102
-0.327601 0.219034 -0.196874 -0.316932 0.0643961 -0.94626 168 139 128
-0.329396 0.244716 -0.195472 -0.267563 0.13665 -0.953801 30 33 104
-0.322776 0.270067 -0.18023 -0.0318752 0.567315 -0.822884 35 36 101
-0.328071 0.260197 -0.181008 -0.118999 0.390022 -0.913084 27 34 110
-0.323981 0.280981 -0.171497 -0.150609 0.621997 -0.768399 38 34 67
-0.318865 0.289243 -0.16609 -0.0276554 0.698633 -0.714945 48 42 49
-0.324953 0.295992 -0.159111 -0.0561224 0.703885 -0.708092 47 42 51
-0.319857 0.303549 -0.152217 -0.00736211 0.713903 -0.700206 145 136 141
-0.324933 0.315522 -0.137213 -0.154848 0.737022 -0.657891 46 38 78
-0.318443 0.321778 -0.128908 -0.14498 0.821328 -0.551725 34 31 45
-0.32172 0.332654 -0.110005 -0.149104 0.876113 -0.458468 37 33 68
-0.322281 0.332341 -0.109785 -0.178731 0.877791 -0.444451 37 33 72
-0.314383 0.337774 -0.102463 -0.161777 0.919919 -0.357179 67 58 82
-0.315003 0.344108 -0.0871542 -0.0549209 0.969031 -0.240754 96 94 151
-0.312879 0.346699 -0.076823 0.153957 0.981083 -0.11736 153 149 173
-0.320877 0.347159 -0.0696135 -0.0592607 0.968291 -0.242699 84 83 157
-0.318866 0.348908 -0.0591474 -0.00650296 0.987115 -0.159883 117 107 148
-0.314593 0.35147 -0.0382014 -0.0750254 0.993826 -0.0817327 109 87 121
-0.316834 0.350163 -0.048679 -0.0708265 0.991759 -0.106757 123 109 131
-0.31257 0.352785 -0.0277702 -0.0482453 0.992724 -0.110324 74 58 122
-0.312645 0.352805 -0.027745 -0.0477794 0.992583 -0.111782 73 58 122
-0.320543 0.35404 -0.0208645 -0.0210469 0.988764 -0.147997 36 47 138
-0.31902 0.355089 -0.0100073 -0.0163617 0.993371 -0.113789 81 93 99
-0.317215 0.35625 0.0109969 -0.00251942 0.999068 -0.0430871 98 111 50
-0.316993 0.355791 0.000533822 0.03639 0.998728 -0.034904 113 127 64
-0.313305 0.356155 0.0411846 0.0341448 0.999102 0.025068 86 98 45
-0.313654 0.356099 0.0412883 0.04599 0.998897 0.00943655 85 97 44
-0.316041 0.356083 0.0306713 0.0460374 0.998835 0.014517 77 87 43
-0.315583 0.356432 0.0304486 0.0247461 0.998388 0.0510696 76 86 42
-0.311052 0.356017 0.0519409 0.00577189 0.999916 0.011581 99 113 47
-0.317244 0.355686 0.0702794 0.123548 0.992339 -0.000715813 126 144 62
-0.319248 0.356431 0.0593778 0.0811409 0.996212 0.0312705 126 142 61
-0.315265 0.35468 0.0813213 0.188601 0.982052 -0.00221542 129 145 65
-0.31303 0.353931 0.0924319 0.237646 0.971345 -0.0035702 133 148 68
-0.310208 0.353842 0.103296 0.0247407 0.99728 0.0694356 133 148 69
-0.318472 0.354454 0.111354 0.221162 0.968409 0.115202 176 178 155
-0.316022 0.354053 0.1224 0.143098 0.984801 0.0984411 182 183 168
-0.313582 0.352598 0.133324 0.157498 0.983014 0.0942211 183 183 173
-0.311074 0.351389 0.144489 0.10445 0.987726 0.11613 184 183 177
-0.310155 0.349978 0.156178 0.120404 0.983885 0.132191 178 176 181
-0.37161 -0.0951629 -0.267046 -0.71577 0.251055 -0.651648 169 135 119
-0.365011 -0.0969267 -0.273897 -0.636744 0.184685 -0.748631 179 148 133
-0.371602 -0.095056 -0.267104 -0.717371 0.252103 -0.649479 169 135 119
-0.365013 -0.0969614 -0.273881 -0.633969 0.182718 -0.751463 179 148 133
-0.365017 -0.0644286 -0.272849 0.140314 0.608694 -0.7809 179 156 147
-0.359315 -0.0437363 -0.272739 -0.272077 0.237137 -0.932599 178 157 145
-0.366824 -0.0355887 -0.264129 -0.219648 0.189063 -0.957085 182 157 147
-0.359753 -0.017158 -0.264504 -0.246545 0.29704 -0.922487 147 131 126
-0.366172 -0.00871255 -0.256649 -0.236626 0.483746 -0.842614 37 29 28
-0.359746 0.00156705 -0.251721 -0.198587 0.588518 -0.783716 25 23 22
-0.359295 0.0179306 -0.23799 -0.247003 0.476299 -0.843877 138 124 121
-0.358793 0.0178605 -0.237739 -0.207867 0.560217 -0.80184 134 122 122
-0.35239 0.0302767 -0.236253 -0.287005 0.313071 -0.905326 99 84 83
-0.356761 0.0480731 -0.23293 -0.164536 0.00735563 -0.986343 61 49 51
-0.355216 0.0858627 -0.230093 -0.148511 0.122384 -0.981308 82 64 64
-0.348126 0.101283 -0.228117 -0.0569688 0.193314 -0.979482 114 96 93
-0.354426 0.112158 -0.223424 -0.154428 0.331538 -0.930718 109 69 67
-0.348479 0.123184 -0.220068 -0.126824 0.426016 -0.895783 116 100 101
-0.342231 0.152291 -0.204174 -0.190518 0.648347 -0.737121 55 52 63
-0.348196 0.143759 -0.209057 -0.12651 0.516935 -0.846626 61 60 72
-0.347541 0.160686 -0.198892 -0.185081 0.622698 -0.760258 62 56 63
-0.341969 0.171317 -0.190603 -0.21196 0.553194 -0.805636 76 63 64
-0.344013 0.195149 -0.187246 -0.130887 -0.117744 -0.98438 146 116 100
-0.341139 0.216421 -0.192068 -0.229109 -0.0719709 -0.970736 163 131 116
-0.335273 0.231158 -0.194666 -0.24436 0.16194 -0.956067 133 113 133
-0.34275 0.242199 -0.190757 -0.250065 0.186843 -0.95003 60 55 109
-0.34046 0.263925 -0.185878 -0.441719 0.446994 -0.777869 26 32 110
-0.333884 0.26824 -0.17723 -0.303386 0.669464 -0.678067 30 35 114
-0.330307 0.287621 -0.164424 -0.198094 0.622788 -0.756897 29 29 62
-0.337111 0.294603 -0.156189 -0.205727 0.685872 -0.698037 37 37 80
-0.331366 0.302488 -0.151887 -0.0775584 0.711301 -0.698596 38 32 48
-0.330955 0.320236 -0.127079 -0.166203 0.810503 -0.56166 19 33 125
-0.334457 0.326792 -0.115859 -0.166272 0.844017 -0.50989 17 30 130
-0.333446 0.338673 -0.0941488 -0.187932 0.917842 -0.34964 20 34 146
-0.325085 0.337431 -0.100963 -0.157599 0.91317 -0.375876 29 39 134
-0.32689 0.3408 -0.0896783 -0.145688 0.948887 -0.279978 24 37 145
-0.323035 0.345328 -0.0801174 -0.0957634 0.96878 -0.228679 42 50 147
-0.328784 0.34871 -0.0627211 -0.056988 0.985937 -0.157096 30 39 145
-0.328735 0.351456 -0.0484742 -0.072274 0.988712 -0.131242 36 39 119
-0.322325 0.352782 -0.0313021 -0.0182713 0.992371 -0.12193 36 41 139
-0.328563 0.35806 -0.0143404 0.290299 0.931292 -0.220051 65 77 138
-0.328892 0.356036 -0.00303381 0.0153324 0.991589 -0.128518 85 99 93
-0.327208 0.356785 0.00748002 0.0483644 0.995821 -0.0774671 97 108 56
-0.325591 0.356664 0.0181279 0.0739863 0.997166 -0.0136911 96 105 49
-0.323855 0.357185 0.0378274 0.0568214 0.9982 -0.0192044 101 115 56
-0.326197 0.356886 0.0271973 0.0727603 0.996121 -0.0494931 82 90 44
-0.321582 0.356916 0.0485715 0.0641629 0.997862 0.0123787 120 136 61
-0.329414 0.357944 0.0559029 0.0643098 0.997918 -0.00503922 160 166 113
-0.327182 0.357823 0.0667107 0.0698027 0.997307 0.0225226 165 170 119
-0.325417 0.357204 0.0778015 0.194886 0.980784 -0.0090396 169 173 131
-0.320733 0.354733 0.0997927 0.280591 0.959411 0.028263 173 177 144
-0.323339 0.356789 0.0889382 0.191618 0.980651 0.0400738 174 178 142
-0.329 0.358017 0.108089 0.0946321 0.993934 0.0560383 125 119 127
-0.326931 0.355915 0.119128 0.134076 0.987351 0.0846261 118 111 120
-0.324073 0.355299 0.130099 0.169227 0.98246 0.0783238 124 116 125
-0.32202 0.352966 0.141326 0.134884 0.986081 0.0972133 121 114 121
-0.319531 0.351041 0.15268 0.129576 0.984422 0.11884 120 111 119
-0.31959 0.353385 0.164741 0.0592514 0.978892 0.195599 127 122 127
-0.373553 -0.068266 -0.259974 -0.674903 0.209141 -0.707647 172 140 123
-0.380774 -0.0683576 -0.250682 -0.651046 0.190549 -0.734731 153 121 105
-0.373131 -0.0226922 -0.259106 -0.352356 0.301455 -0.885985 159 136 125
-0.372752 -0.000471315 -0.248625 -0.297804 0.484878 -0.822317 28 24 21
-0.372109 5.12536e-05 -0.2494 -0.236913 0.526632 -0.816413 29 26 25
-0.365768 0.0085655 -0.243396 -0.211626 0.590276 -0.778966 47 43 44
-0.371614 0.0161685 -0.235055 -0.245804 0.469767 -0.847879 115 104 102
-0.364798 0.0288159 -0.233742 -0.278695 0.308781 -0.909386 96 81 81
-0.367958 0.0574699 -0.229127 -0.260253 0.0330219 -0.964976 75 59 58
-0.36161 0.0722421 -0.230282 -0.216994 0.0438471 -0.975188 86 67 64
-0.360706 0.0990975 -0.22546 -0.192472 0.193933 -0.961948 104 78 75
-0.361057 0.121999 -0.218241 -0.256427 0.410546 -0.875041 113 84 82
-0.354976 0.132272 -0.214282 -0.199004 0.473853 -0.857823 70 64 73
-0.360088 0.1425 -0.20752 -0.358295 0.364994 -0.859305 82 74 80
-0.354357 0.151892 -0.202722 -0.245881 0.460021 -0.853185 57 54 65
-0.353495 0.151482 -0.202766 -0.180675 0.456593 -0.871136 56 53 64
-0.360355 0.161182 -0.196919 -0.312823 0.462592 -0.829548 69 66 75
-0.354132 0.170355 -0.189342 -0.163596 0.449761 -0.878038 63 55 60
-0.354917 0.166928 -0.182551 -0.164852 -0.0330945 -0.985763 60 52 57
-0.354313 0.191794 -0.181861 -0.0965682 -0.123515 -0.987633 141 115 102
-0.350007 0.25074 -0.183301 -0.370092 0.361072 -0.855955 121 110 138
-0.340624 0.270789 -0.174059 -0.219663 0.442037 -0.869684 26 33 111
-0.346799 0.278739 -0.169161 -0.0922575 0.525578 -0.845728 26 35 123
-0.342978 0.286771 -0.162168 -0.210974 0.577617 -0.788574 22 33 122
-0.344591 0.299723 -0.149082 -0.182417 0.706968 -0.683315 26 42 121
-0.337732 0.313599 -0.135153 -0.155467 0.761622 -0.629096 24 41 131
-0.340924 0.320328 -0.124063 -0.219609 0.760428 -0.611164 18 39 136
-0.338002 0.343262 -0.081341 -0.0764692 0.937161 -0.340414 23 39 151
-0.336144 0.346364 -0.0701114 -0.173389 0.961032 -0.215301 21 37 155
-0.336889 0.350607 -0.0470933 0.021529 0.991441 -0.128769 31 47 153
-0.334827 0.351809 -0.0364388 0.0289792 0.995018 -0.0953946 41 58 157
-0.335574 0.354191 -0.02454 0.0187002 0.992973 -0.11686 88 106 174
-0.332323 0.353254 -0.0246991 -1.94802e-05 0.990199 -0.139662 59 76 162
-0.339983 0.356461 -0.00701842 0.113152 0.986755 -0.116237 107 115 141
-0.336979 0.357061 0.00389947 0.103232 0.99215 -0.0705736 122 131 97
-0.338962 0.358168 0.0137402 0.131417 0.989724 -0.0563456 143 145 110
-0.336252 0.357786 0.023691 0.151705 0.987409 -0.0448182 138 140 101
-0.337591 0.359086 0.0387228 0.215571 0.975251 -0.0491265 180 180 161
-0.334196 0.357973 0.0343249 0.233131 0.971029 -0.0524801 139 144 102
-0.336744 0.359116 0.0498808 0.266009 0.962813 -0.0472329 187 187 172
-0.338604 0.357962 0.0616357 0.17075 0.985291 -0.00679001 190 189 188
-0.33569 0.359483 0.0743278 0.246084 0.969116 -0.0160276 191 190 191
-0.334176 0.358566 0.0856954 0.108563 0.993828 0.0228341 191 189 194
-0.331351 0.358362 0.0965717 0.103684 0.993907 0.0374099 185 183 188
-0.337058 0.35737 0.119021 0.184118 0.970143 0.157872 161 157 164
-0.335568 0.357212 0.126596 0.198854 0.977957 0.0636943 166 164 170
-0.333006 0.354082 0.138184 0.0942903 0.982549 0.160334 170 166 171
-0.330528 0.35185 0.149618 0.0737049 0.989596 0.123565 177 172 177
-0.387326 -0.0280871 -0.251391 -0.636262 0.251561 -0.729306 146 117 100
-0.379702 -0.0141633 -0.251251 -0.407274 0.441311 -0.799608 62 48 41
-0.378541 0.00589267 -0.239868 -0.23618 0.478201 -0.845897 33 29 28
-0.385059 0.0150649 -0.232495 -0.206044 0.463656 -0.861724 81 73 72
-0.378074 0.0265574 -0.229057 -0.268623 0.343717 -0.899833 90 75 75
-0.380953 0.0407575 -0.225989 -0.300267 0.154864 -0.9412 94 74 70
-0.376998 0.0692155 -0.225164 -0.382945 0.0368918 -0.923035 119 96 87
-0.369857 0.0842816 -0.227651 -0.270925 0.176273 -0.946323 125 102 91
-0.367729 0.110614 -0.221443 -0.300297 0.29636 -0.906638 126 80 73
-0.373773 0.120102 -0.215403 -0.371054 0.372059 -0.850818 117 97 93
-0.367252 0.130631 -0.211584 -0.310641 0.469637 -0.826404 104 91 91
-0.373168 0.140438 -0.205469 -0.448034 0.474289 -0.757836 126 112 110
-0.366486 0.151119 -0.201338 -0.395694 0.456428 -0.796932 108 100 103
-0.366414 0.168937 -0.187024 -0.170804 0.450373 -0.87635 89 80 84
-0.360489 0.179096 -0.183014 -0.116531 0.149038 -0.981941 96 82 80
-0.365657 0.208045 -0.183394 -0.0373649 -0.135004 -0.99014 98 74 63
-0.358555 0.231335 -0.189896 -0.217506 -0.0945651 -0.971467 177 150 139
-0.355966 0.240536 -0.187263 -0.273995 0.22878 -0.934124 179 156 149
-0.362027 0.249149 -0.179845 -0.291024 0.411919 -0.863498 183 163 157
-0.356492 0.260785 -0.178158 -0.0343396 0.436301 -0.899145 164 148 156
-0.351799 0.269968 -0.174003 -0.00459003 0.499803 -0.866127 77 75 129
-0.358268 0.277368 -0.168209 -0.14248 0.436894 -0.888157 108 102 141
-0.348436 0.293657 -0.154608 -0.170726 0.661727 -0.730047 25 42 126
-0.355462 0.299552 -0.14809 -0.161752 0.653102 -0.739794 58 84 140
-0.350149 0.308836 -0.139876 -0.204765 0.719964 -0.663117 37 72 140
-0.346735 0.316358 -0.132276 -0.151392 0.774761 -0.613862 35 67 144
-0.346499 0.325923 -0.114915 -0.11311 0.83508 -0.538375 27 50 144
-0.345147 0.332412 -0.104159 -0.121092 0.882038 -0.455353 22 42 146
-0.345631 0.336805 -0.0928968 -0.0641601 0.931797 -0.357264 26 46 150
-0.345523 0.336687 -0.0930671 -0.0704925 0.930642 -0.359075 25 45 150
-0.346981 0.345618 -0.0740855 0.0647192 0.948057 -0.311447 49 69 160
-0.347683 0.347989 -0.0651158 0.0564605 0.958312 -0.280088 70 89 170
-0.345919 0.350794 -0.0544754 0.0933947 0.955541 -0.279677 70 89 168
-0.345533 0.352618 -0.0401645 0.244076 0.956725 -0.158441 102 123 182
-0.346155 0.355419 -0.0285225 0.284104 0.937928 -0.198938 139 154 190
-0.344764 0.355993 -0.0176497 0.118374 0.977266 -0.175895 151 162 191
-0.349141 0.359356 0.0102035 0.154128 0.984273 -0.0863173 194 190 192
-0.34702 0.35993 0.0207875 0.189312 0.980553 -0.0517406 190 188 189
-0.348431 0.360158 0.0345966 0.11551 0.992878 -0.0291867 193 189 194
-0.345034 0.364385 0.0450431 0.320103 0.919183 -0.229428 199 191 195
-0.344703 0.363586 0.0563489 0.318466 0.946578 -0.0506841 194 189 196
-0.345312 0.35878 0.0824986 -0.0535794 0.998378 0.0192374 191 187 191
-0.346488 0.360659 0.069644 0.388593 0.913781 -0.118323 193 188 193
-0.342876 0.35847 0.0933297 0.0388665 0.9985 0.0385555 184 181 187
-0.340351 0.35829 0.104157 0.068604 0.997548 0.0138526 135 129 135
-0.349888 0.358405 0.112593 -0.0538371 0.998193 -0.0266897 109 102 107
-0.34762 0.357479 0.12376 -0.0454038 0.996214 0.0741467 178 174 181
-0.393438 -0.0184931 -0.241837 -0.657388 0.226443 -0.718724 88 67 57
-0.39159 0.00545699 -0.237718 -0.252702 0.297859 -0.920555 26 22 19
-0.396619 0.0161358 -0.231617 -0.104144 0.513254 -0.851894 52 46 46
-0.391585 0.0261066 -0.226703 -0.26427 0.301315 -0.916171 124 107 103
-0.384981 0.0398508 -0.225465 -0.247702 0.229288 -0.941313 102 81 75
-0.382522 0.0573199 -0.22407 -0.346861 0.115234 -0.93081 101 80 74
-0.38588 0.0865112 -0.220421 -0.42807 0.248161 -0.869006 104 83 75
-0.379269 0.100886 -0.220015 -0.381344 0.21877 -0.898174 83 64 62
-0.38635 0.112444 -0.211822 -0.445021 0.350297 -0.824166 138 117 108
-0.379625 0.128738 -0.207511 -0.438002 0.464429 -0.769715 97 80 78
-0.379493 0.148569 -0.196137 -0.454462 0.477237 -0.752137 126 107 102
-0.372579 0.159511 -0.19313 -0.40506 0.489736 -0.772066 115 105 106
-0.37871 0.167507 -0.184656 -0.347262 0.586725 -0.731549 131 116 113
-0.372778 0.177687 -0.180689 -0.203943 0.103655 -0.97348 143 124 117
-0.37513 0.222146 -0.183335 -0.272342 -0.0433372 -0.961224 166 140 127
-0.36822 0.237983 -0.181379 -0.257955 0.429779 -0.865303 185 162 154
-0.367494 0.259283 -0.177446 -0.250729 0.447438 -0.858449 188 167 162
-0.368962 0.276842 -0.169441 0.0210682 0.524868 -0.850923 184 169 167
-0.362789 0.269322 -0.174719 0.0637864 0.524327 -0.849125 172 160 165
-0.364619 0.284912 -0.163729 0.116304 0.563643 -0.81779 165 157 165
-0.366428 0.299209 -0.149338 0.063086 0.63661 -0.768601 169 163 168
-0.359878 0.292233 -0.154898 0.0405898 0.607616 -0.793193 107 116 151
-0.36204 0.307654 -0.140349 0.0275038 0.697953 -0.715615 137 143 164
-0.358724 0.315688 -0.130857 -0.161814 0.743323 -0.649066 103 120 156
-0.356745 0.322992 -0.120676 -0.00432087 0.80302 -0.595936 89 112 157
-0.357925 0.329946 -0.108587 0.375311 0.785114 -0.492685 117 133 170
-0.35723 0.340723 -0.0864751 0.500518 0.786515 -0.361767 136 148 181
-0.359086 0.34407 -0.0813339 0.146648 0.920042 -0.363342 171 174 192
-0.358111 0.350068 -0.0699069 0.500945 0.790232 -0.352969 177 178 195
-0.357076 0.351488 -0.0585273 0.284014 0.912309 -0.295004 176 179 198
-0.354539 0.354001 -0.0477624 0.32717 0.921356 -0.209909 173 179 201
-0.354946 0.362115 -0.0369286 0.473565 0.839714 -0.265738 193 191 201
-0.355836 0.358683 -0.0243093 0.290455 0.945577 -0.146698 194 191 201
-0.352796 0.358237 -0.0109371 0.172855 0.977082 -0.124225 193 190 199
-0.359303 0.362911 -0.00439116 0.327364 0.934661 -0.138717 196 189 195
-0.351283 0.358269 -0.000263715 0.107562 0.987677 -0.113691 193 190 194
-0.358743 0.36086 0.00652351 0.125588 0.987269 -0.0975991 195 189 195
-0.356213 0.36273 0.017004 0.226495 0.971423 -0.0709762 196 190 195
-0.356636 0.364609 0.0306211 0.303055 0.946254 -0.112965 195 188 193
-0.354132 0.36829 0.0404483 0.554225 0.821815 -0.13212 193 187 191
-0.354721 0.366028 0.0519953 0.344117 0.91868 -0.193934 197 188 192
-0.35185 0.358527 0.0898798 -0.0379551 0.998868 0.0286606 187 182 187
