ply
format ascii 1.0
element vertex 283
property float x
property float y
property float z
property float nx
property float ny
property float nz
property uchar diffuse_red
property uchar diffuse_green
property uchar diffuse_blue
end_header
0.378296 -0.222581 -0.301181 0.565658 0.354423 -0.744591 37 48 153
0.352787 -0.054242 -0.242019 0.6226 0.394312 -0.675935 40 53 163
0.3438 0.00235476 -0.222061 0.552214 0.349127 -0.75708 29 48 164
0.350785 0.0134256 -0.206697 0.671353 0.448792 -0.589806 48 45 127
0.252294 -0.325109 -0.402319 0.60077 0.366559 -0.71043 174 159 158
0.337303 0.0426633 -0.22149 -0.254507 0.261489 -0.931047 53 49 127
0.333703 0.0539656 -0.21604 -0.231467 0.270795 -0.934394 77 54 111
0.357921 0.181068 -0.0904944 0.912277 0.295072 -0.28405 93 63 72
0.3258 0.0851917 -0.200142 -0.0960327 0.385375 -0.917749 25 42 157
0.328346 0.118823 -0.170994 0.638052 0.339277 -0.691218 20 37 165
0.232356 -0.190698 -0.356439 0.603634 0.398023 -0.6908 160 150 152
0.32494 0.160768 -0.152553 0.599777 0.336133 -0.726142 44 55 169
0.305394 0.190983 -0.152865 0.429301 0.380582 -0.81906 51 58 155
0.211378 -0.157176 -0.356908 0.589539 0.312058 -0.745026 183 169 170
0.194185 -0.0609609 -0.322856 0.598109 0.376476 -0.707482 173 164 166
0.206254 -0.019877 -0.291162 0.578236 0.366767 -0.728784 205 190 188
0.101471 -0.326293 -0.444568 -0.0484834 0.389729 -0.919652 172 144 134
0.313819 0.410348 0.0820757 0.878075 0.47536 0.0549269 128 55 82
0.174113 0.0127194 -0.30237 0.642979 0.327385 -0.692385 187 176 177
0.099839 -0.190271 -0.399753 0.1447 0.324309 -0.934818 139 115 107
0.048754 -0.337176 -0.441309 0.0367042 0.276967 -0.960178 175 147 136
0.182643 0.107502 -0.241436 0.528458 0.400846 -0.748369 187 176 176
0.27164 0.389008 -0.0502922 0.501273 0.658286 -0.561591 49 56 119
0.169268 0.109092 -0.250335 0.546655 0.440908 -0.711877 150 142 146
0.0691785 -0.171204 -0.38872 -0.0197144 0.265214 -0.963988 176 149 140
0.269009 0.417359 -0.0224404 0.380086 0.775023 -0.50485 39 44 168
0.147886 0.12019 -0.263417 0.673738 0.416501 -0.610413 148 140 144
0.0271498 -0.242916 -0.406105 -0.0700898 0.406286 -0.911054 173 147 138
0.00429485 -0.292391 -0.428001 0.00212217 0.321292 -0.946977 186 159 148
0.148429 0.158967 -0.23944 0.616135 0.409616 -0.672749 175 168 171
0.0658734 -0.0676905 -0.351131 -0.0167154 0.316726 -0.94837 168 144 137
-0.0637222 -0.42508 -0.463981 -0.124358 0.321635 -0.938662 130 113 87
-0.0664666 -0.375638 -0.445845 -0.144784 0.334539 -0.931194 88 91 38
0.0442391 -0.0133265 -0.330973 -0.0138986 0.271496 -0.96234 171 149 141
0.0459715 0.0773876 -0.293304 -0.0191483 0.311584 -0.950026 179 159 152
-0.0397076 -0.110906 -0.362547 -0.035682 0.377444 -0.925344 149 129 125
-0.010474 -0.0283081 -0.331552 -0.145813 0.293703 -0.94471 174 152 144
0.0982695 0.292569 -0.16776 0.560659 0.746444 -0.358448 206 205 214
0.086664 0.25486 0.176278 0.533591 0.785489 0.313509 165 167 180
-0.14611 -0.301468 -0.404857 -0.127895 0.294072 -0.947188 171 143 129
0.0832911 0.30123 -0.151249 -0.0625373 0.910459 -0.408845 166 160 168
0.0663276 0.276245 0.149333 0.576322 0.792634 0.198958 175 178 191
-0.133335 -0.247853 -0.387842 -0.224872 0.363612 -0.904002 180 150 137
0.0429472 0.242666 -0.216859 0.245262 0.521909 -0.81698 174 160 156
0.0279454 0.235766 -0.224946 0.120509 0.468729 -0.875083 151 134 129
0.0503256 0.31005 0.00437517 0.28864 0.952569 0.096437 131 133 143
-0.267599 -0.521421 -0.421219 -0.235677 0.37376 -0.897084 71 56 56
0.020762 0.243959 -0.220809 0.127636 0.464374 -0.876394 168 151 147
0.050186 0.310051 0.0041636 0.327325 0.940849 0.0875304 132 133 144
0.0435048 0.305871 0.0596268 0.290411 0.948062 0.129767 172 174 186
-0.145751 -0.167391 -0.362432 -0.140733 0.270032 -0.952511 180 153 142
-0.0944001 -0.0130744 -0.328272 -0.0134635 0.239195 -0.970879 130 112 110
0.034643 0.308947 -0.124472 -0.0273557 0.992592 -0.118372 127 123 132
-0.082395 0.0133379 -0.320855 -0.0702247 0.296899 -0.952323 128 112 112
-0.0627194 0.0233352 -0.314927 -0.036046 0.398221 -0.916582 178 157 150
-0.0497807 0.101152 -0.277344 0.261807 0.422912 -0.867526 156 137 133
0.0344815 0.315957 -0.0751015 0.238615 0.970709 -0.0280447 129 130 141
0.00162298 0.257655 -0.215783 0.0366928 0.498992 -0.86583 176 158 153
-0.0711483 0.056834 -0.303128 0.217549 0.43902 -0.871742 171 151 147
-0.0961319 0.0314387 -0.309329 -0.203309 0.316163 -0.926664 127 110 109
0.0146618 0.311421 -0.122485 0.129411 0.974202 -0.184889 165 166 177
-0.0562591 0.143119 -0.258532 0.391093 0.365994 -0.844449 167 148 144
-0.0110921 0.290113 0.178211 0.29821 0.886804 0.353058 173 177 191
-0.063712 0.154892 -0.256825 0.297174 0.402254 -0.865956 143 125 123
-0.135703 -0.0204712 -0.317865 -0.240232 0.362437 -0.900515 40 39 48
-0.0335253 0.290272 0.208176 0.4591 0.817082 0.348719 181 185 198
-0.0640391 0.206687 -0.234672 0.212998 0.405768 -0.888811 171 153 149
-0.0990293 0.185253 -0.253242 0.240348 0.428382 -0.871046 150 134 133
-0.0786499 0.2265 -0.228397 0.190169 0.443523 -0.875856 126 109 107
-0.0379323 0.313136 -0.147948 0.134128 0.926568 -0.351401 198 193 198
-0.0524685 0.330848 0.0793861 0.380417 0.920298 0.0912916 170 172 186
-0.155203 0.0922556 -0.281569 0.0340638 0.245965 -0.96868 23 30 104
-0.0963113 0.215945 -0.23873 0.253572 0.438222 -0.862359 168 153 151
-0.260663 -0.147213 -0.330593 -0.18515 0.291856 -0.938371 66 44 47
-0.0657634 0.334233 0.0555389 0.564026 0.825753 -0.00273591 153 155 169
-0.10646 0.325424 -0.145337 0.0445452 0.978752 -0.20015 200 196 201
-0.196097 0.155909 -0.252529 -0.149324 0.361827 -0.920209 120 84 73
-0.117944 0.339427 -0.0959772 0.281483 0.934084 -0.219671 191 188 196
-0.173539 0.255293 -0.213182 -0.124393 0.507626 -0.85255 55 90 51
-0.144275 0.334994 -0.127143 -0.0501595 0.938634 -0.341247 125 124 137
-0.168069 0.293524 -0.185513 -0.119104 0.712406 -0.691586 65 68 128
-0.313743 0.0157594 -0.256204 -0.329071 0.564576 -0.756945 34 29 28
-0.178877 0.319001 -0.152368 -0.0517575 0.826761 -0.560167 35 43 82
-0.242153 0.202957 -0.227001 -0.186065 0.319162 -0.929256 40 32 38
-0.345961 0.0188441 -0.239392 -0.217481 0.510526 -0.831905 137 124 122
-0.196784 0.340642 -0.106246 -0.0213179 0.962792 -0.2694 46 106 68
-0.239536 0.254999 -0.203009 -0.136945 0.583088 -0.800783 45 31 41
-0.202845 0.352034 -0.0476927 -0.0203439 0.998231 -0.0558608 59 81 71
-0.204785 0.355236 -0.00868054 0.00668116 0.998356 -0.0569305 34 43 146
-0.217795 0.337166 -0.110584 0.223926 0.887745 -0.4022 42 86 58
-0.221108 0.348662 -0.0836595 0.12631 0.980753 -0.148894 161 169 167
-0.324611 0.163552 -0.201919 -0.139469 0.432005 -0.891022 71 60 62
-0.236973 0.352944 -0.069182 0.185381 0.941876 -0.280184 128 131 148
-0.250403 0.326039 -0.133896 -0.0108719 0.795194 -0.606257 33 50 36
-0.241458 0.355039 -0.000333413 0.0240157 0.999569 0.016854 22 31 107
-0.26433 0.355433 -0.0177162 -0.00854071 0.999622 0.0261547 165 163 186
-0.272023 0.355959 0.03109 -0.0281728 0.999298 -0.0247069 121 138 56
-0.328071 0.260197 -0.181008 -0.118999 0.390022 -0.913084 27 34 110
-0.289515 0.350152 -0.0837148 -0.171495 0.918841 -0.355416 136 127 131
-0.305187 0.351636 0.125646 0.0905604 0.994566 0.0513559 139 152 79
-0.306763 0.355472 0.00410928 0.00443568 0.999969 -0.0064524 107 116 49
-0.330307 0.287621 -0.164424 -0.198094 0.622788 -0.756897 29 29 62
-0.320543 0.35404 -0.0208645 -0.0210469 0.988764 -0.147997 36 47 138
-0.36822 0.237983 -0.181379 -0.257955 0.429779 -0.865303 185 162 154
-0.338002 0.343262 -0.081341 -0.0764692 0.937161 -0.340414 23 39 151
-0.334176 0.358566 0.0856954 0.108563 0.993828 0.0228341 191 189 194
-0.344764 0.355993 -0.0176497 0.118374 0.977266 -0.175895 151 162 191
0.376019 -0.265387 -0.320756 -0.245558 0.231518 -0.941329 142 134 167
0.354891 -0.133012 -0.280552 -0.231015 0.272658 -0.933964 110 106 156
0.347854 -0.145837 -0.283209 -0.214052 0.31197 -0.925666 192 173 174
0.352885 -0.102723 -0.266902 0.419437 0.35707 -0.83461 44 52 149
0.343493 -0.0863738 -0.26519 0.29342 0.378186 -0.877997 119 112 164
0.235635 -0.430372 -0.466743 0.522773 0.332474 -0.784964 210 189 184
0.345382 0.0742796 -0.181772 0.659778 0.547604 -0.514609 81 65 132
0.236376 -0.295556 -0.405404 0.562147 0.241925 -0.790862 156 143 144
0.311942 0.0654549 -0.208217 -0.235721 0.315185 -0.919291 183 167 178
0.36051 0.25506 -0.0036875 0.936124 0.313663 -0.159019 204 206 220
0.198493 -0.257213 -0.417569 0.423608 0.231967 -0.875641 208 188 181
0.101405 -0.424241 -0.479112 -0.228603 0.520179 -0.822894 192 163 152
0.293879 0.231698 -0.139167 0.403622 0.450285 -0.79645 50 53 154
0.313245 0.313798 -0.0695437 0.641835 0.603733 -0.472816 83 98 89
0.11519 -0.421175 -0.483379 -0.0688501 0.546258 -0.834783 193 164 153
0.135272 -0.243993 -0.421482 -0.169408 0.352802 -0.920235 188 158 144
0.181792 -0.100601 -0.356373 0.516746 0.388737 -0.762796 213 196 193
0.184559 -0.0458325 -0.322781 0.611388 0.380164 -0.694032 180 170 175
0.0434524 -0.439579 -0.482184 -0.046639 0.461592 -0.885865 193 164 152
0.267061 0.368445 -0.0679456 0.319533 0.54744 -0.773439 138 150 131
0.153598 0.0587359 -0.295644 0.485274 0.36714 -0.793548 213 198 195
0.253363 0.400489 -0.0389876 -0.169511 0.695241 -0.698503 183 167 165
0.160865 0.120415 -0.246591 0.389765 0.52492 -0.756665 172 164 168
0.0462395 -0.122385 -0.373112 -0.13372 0.416247 -0.899365 191 164 153
0.0572031 -0.0521408 -0.349985 0.229071 0.283523 -0.931205 169 146 138
0.0325252 -0.123698 -0.37169 -0.122091 0.399312 -0.908649 188 164 153
0.0736379 0.0448326 -0.310563 -0.148908 0.3329 -0.931131 192 169 158
-0.00602761 -0.0960204 -0.355643 0.00799692 0.442252 -0.896855 164 143 137
0.040972 0.0289384 -0.313275 -0.0958167 0.390732 -0.915503 192 170 160
0.0312344 0.0288771 -0.314742 -0.0791032 0.502147 -0.861157 192 169 160
0.0161641 0.0283511 -0.312602 -0.136511 0.564915 -0.813779 193 171 160
0.0375402 0.0914804 -0.295837 0.469117 0.0992713 -0.877539 181 160 154
0.00523954 0.029705 -0.315213 -0.105792 0.462242 -0.880421 193 170 160
0.0117539 0.0545053 -0.298292 -0.0868247 0.603276 -0.792793 155 143 141
0.0827514 0.270804 0.130877 0.472139 0.834285 0.284699 133 135 149
0.0912096 0.281546 0.0855429 0.517529 0.837157 0.177008 197 196 205
0.0779577 0.312691 -0.0208337 -0.206877 0.965695 0.156955 182 177 181
0.0752871 0.313529 -0.0320823 -0.201007 0.969992 0.136789 183 178 182
0.0598845 0.309636 -0.0462368 0.115954 0.993083 0.0184713 180 178 185
-0.0551997 0.0104613 -0.317917 -0.10668 0.312584 -0.943881 187 165 156
0.0667616 0.312626 -0.0659223 -0.0679473 0.997373 0.0251006 184 181 186
0.0634099 0.312341 -0.076695 -0.0912773 0.995674 0.0174163 186 183 188
0.0585475 0.308237 -0.101133 0.212611 0.974994 -0.0646797 191 187 193
0.0474623 0.297664 0.0966426 0.31296 0.935157 0.165944 201 200 210
0.0406052 0.307438 0.0492794 0.289164 0.946138 0.145622 177 177 189
0.0329082 0.312978 0.020376 0.288563 0.955129 0.0667923 178 178 189
0.0392184 0.312636 0.000610388 0.144758 0.988471 0.0443748 170 171 181
0.02666 0.319922 -0.0449521 0.338343 0.939988 -0.044114 174 173 183
0.0238334 0.316903 -0.0783477 0.0124709 0.9968 -0.0789562 162 162 172
0.0214601 0.307279 -0.140655 0.141206 0.970826 -0.193803 105 104 116
0.00899408 0.315661 -0.107074 0.215639 0.941608 -0.258602 173 171 180
-0.00804983 0.281308 0.18846 0.4742 0.808671 0.348118 173 177 193
-0.0108634 0.312653 0.119066 0.289953 0.931874 0.218033 200 200 211
-0.0225358 0.316473 0.116247 0.279697 0.941871 0.18614 198 199 210
-0.284933 -0.304819 -0.37113 -0.040867 0.236966 -0.970658 37 32 86
-0.0440698 0.329084 0.0707936 0.238534 0.968769 0.0677249 173 175 186
-0.04912 0.32558 -0.100616 0.180541 0.981395 -0.0653386 178 177 188
-0.0580679 0.330576 0.100225 0.35203 0.933271 0.0712734 94 96 110
-0.0630961 0.328513 0.0299204 0.623629 0.773961 -0.109878 174 176 188
-0.092472 0.246126 -0.225629 0.324037 0.206694 -0.923188 187 164 157
-0.0670067 0.307854 -0.190302 0.138132 0.882322 -0.44992 150 148 160
-0.0686736 0.334114 0.00627781 0.482425 0.870564 -0.0968742 172 174 185
-0.0719979 0.326908 -0.120711 0.117104 0.962115 -0.246212 138 138 150
-0.0684231 0.327999 -0.00404324 0.611521 0.777444 -0.147049 172 174 185
-0.0914252 0.341109 -0.0549024 0.0824908 0.980082 -0.18065 151 151 162
-0.265679 -0.042378 -0.29994 -0.112487 0.355518 -0.927876 131 119 78
-0.221156 0.0551226 -0.281319 -0.208305 0.350712 -0.913022 115 44 37
-0.110631 0.351802 -0.00254174 0.292938 0.935345 -0.198288 200 196 201
-0.104242 0.348785 -0.0189686 0.354536 0.932564 -0.0680381 195 193 201
-0.117823 0.351787 -0.0359651 0.381175 0.915082 -0.131641 193 191 198
-0.128589 0.341005 -0.100321 0.204972 0.956026 -0.20976 176 175 187
-0.156912 0.280194 -0.199528 -0.0972183 0.700272 -0.707225 128 120 120
-0.151543 0.288833 -0.195378 -0.253274 0.650767 -0.71579 131 120 123
-0.316037 -0.0334999 -0.284658 -0.262478 0.362866 -0.89411 62 76 50
-0.215792 0.184665 -0.237289 -0.181888 0.380989 -0.906512 173 154 133
-0.163909 0.342815 -0.0935649 -0.0708316 0.966597 -0.246319 153 144 149
-0.323601 0.0362737 -0.240283 -0.177749 0.224788 -0.958058 131 112 107
-0.218122 0.288066 -0.183201 -0.141151 0.601425 -0.786361 36 38 62
-0.210266 0.32357 -0.142958 -0.0215145 0.808321 -0.58835 75 112 76
-0.191396 0.345091 -0.0837292 -0.105391 0.97697 -0.185536 51 107 75
-0.3152 0.114955 -0.225777 -0.0865985 0.371369 -0.924438 57 48 54
-0.218924 0.350253 -0.0728759 0.240703 0.955199 -0.172212 156 165 161
-0.235979 0.342782 0.170688 0.14298 0.930629 0.336878 185 184 195
-0.257531 0.291282 -0.171941 -0.0946652 0.674443 -0.732233 160 42 29
-0.229328 0.354691 -0.0374645 0.0706923 0.997474 0.00688621 189 187 198
-0.342231 0.152291 -0.204174 -0.190518 0.648347 -0.737121 55 52 63
-0.25345 0.355969 0.0272167 0.0653897 0.99655 -0.0511247 101 119 85
-0.255687 0.357864 -0.0663714 0.132526 0.926018 -0.35345 116 118 135
-0.264319 0.355957 0.0755213 0.030628 0.999488 0.0093122 122 141 57
-0.283136 0.351165 0.131862 -0.141527 0.989897 -0.00860386 123 138 64
-0.30794 0.304218 -0.151318 0.0456066 0.765806 -0.641452 170 161 153
-0.285008 0.35457 -0.0243797 -0.0389502 0.998849 -0.0279988 177 172 178
-0.31011 0.345687 0.200739 0.0314294 0.962775 0.268471 117 113 121
-0.397873 0.165773 -0.178756 -0.277557 0.294301 -0.914522 96 82 79
-0.304876 0.344552 -0.083736 0.0864056 0.981192 -0.172615 156 148 155
-0.310887 0.34778 -0.0663246 0.0394141 0.9873 -0.153906 169 161 170
-0.307901 0.355866 0.0233421 0.0126142 0.99992 -9.59389e-05 97 110 55
-0.345919 0.350794 -0.0544754 0.0933947 0.955541 -0.279677 70 89 168
0.37446 -0.0960212 -0.243239 0.666683 0.323654 -0.671403 89 67 99
0.374573 -0.00791792 -0.192997 0.691109 0.35781 -0.627965 74 43 72
0.214122 -0.210893 -0.381954 0.598127 0.359094 -0.716447 183 169 171
0.152035 -0.438604 -0.486084 0.153378 0.346564 -0.925401 192 161 149
0.300782 0.143974 -0.162744 -0.257962 0.347167 -0.901627 192 177 181
0.304639 0.268493 -0.102299 0.637015 0.0913209 -0.765422 66 55 61
0.30602 0.328783 -0.0669519 0.662088 0.473724 -0.580712 75 97 83
0.0466073 -0.471252 -0.486401 0.192899 0.304123 -0.932899 192 162 149
0.0790244 -0.35903 -0.446967 -0.199524 0.291328 -0.935584 174 145 134
0.0979898 -0.166469 -0.389999 0.169921 0.377115 -0.910446 122 98 90
0.151989 0.170422 -0.229291 0.607968 0.407666 -0.68131 157 150 155
-0.0687074 -0.466676 -0.477143 -0.114927 0.305369 -0.945273 86 66 51
-0.0302319 -0.198036 -0.392066 0.0896476 0.343456 -0.93488 128 110 108
0.0764263 0.27272 -0.199631 0.193114 0.64548 -0.738961 167 159 163
-0.0207711 0.0744157 -0.274897 0.429161 0.145147 -0.891489 176 155 149
-0.185672 -0.325897 -0.40762 0.0670066 0.369441 -0.926835 106 52 44
0.0431472 0.294048 0.118881 0.338062 0.899655 0.276287 169 171 183
-0.0031504 0.233223 -0.233456 -0.204956 0.604988 -0.769404 168 154 151
0.0287245 0.316857 0.0303792 0.543883 0.79763 0.260725 180 181 194
-0.248874 -0.380031 -0.409352 0.222125 0.178087 -0.958617 43 35 85
0.00361682 0.304576 0.132786 0.328856 0.881851 0.337923 172 173 186
-0.0146582 0.295869 -0.181575 -0.105558 0.665216 -0.739152 204 195 199
-0.00112354 0.318673 -0.0983247 0.205566 0.962457 -0.177251 170 169 180
-0.211555 -0.105785 -0.329942 -0.193965 0.284477 -0.938856 138 116 111
-0.0422774 0.329594 0.0408879 -0.0165036 0.998504 0.0521224 180 176 182
-0.305503 -0.215149 -0.340775 -0.19616 0.35149 -0.91541 103 94 116
-0.22638 -0.0126986 -0.29983 -0.187168 0.3376 -0.922493 39 37 86
-0.169117 0.117307 -0.272116 -0.16269 0.18974 -0.968261 24 30 104
-0.109038 0.301295 -0.204565 -0.362352 0.6993 -0.616182 130 119 121
-0.108653 0.323719 -0.155168 0.106712 0.974871 -0.19555 201 195 201
-0.224029 0.0998186 -0.267068 -0.0704779 0.430539 -0.899816 38 35 61
-0.115695 0.341348 -0.0851802 0.282024 0.93272 -0.224711 195 192 200
-0.121442 0.35062 -0.00835088 0.172839 0.984498 -0.0298487 196 192 200
-0.128678 0.351312 -0.0422475 0.233749 0.969859 -0.0688184 180 179 190
-0.149217 0.343794 -0.0976198 -0.0505769 0.964886 -0.257753 150 147 157
-0.185118 0.299195 -0.176999 -0.171625 0.710192 -0.682769 38 61 120
-0.176359 0.349164 -0.0581028 0.145477 0.986975 -0.068686 146 129 136
-0.23343 0.338404 0.180812 0.156533 0.922859 0.351891 187 187 195
-0.224195 0.355825 0.0109582 -0.0564602 0.998375 -0.00766017 23 33 115
-0.354426 0.112158 -0.223424 -0.154428 0.331538 -0.930718 109 69 67
-0.257054 0.319391 -0.142583 -0.0778111 0.792747 -0.604564 71 95 65
-0.258816 0.342573 -0.107166 -0.0267389 0.899827 -0.435428 150 145 149
-0.265478 0.358133 -0.0674243 0.0152597 0.965244 -0.260904 113 113 127
-0.277029 0.353915 0.114581 -0.0725666 0.994617 0.0739645 120 138 58
-0.313305 0.356155 0.0411846 0.0341448 0.999102 0.025068 86 98 45
-0.334457 0.326792 -0.115859 -0.166272 0.844017 -0.50989 17 30 130
-0.400562 0.343048 -0.0323718 -0.0694097 0.997339 0.0223251 182 174 176
0.300327 0.178695 -0.160726 0.346298 0.377413 -0.858858 168 160 185
0.140647 -0.338569 -0.448421 -0.0146207 0.338269 -0.940936 150 120 108
0.0743671 0.103581 -0.286249 -0.301737 0.313561 -0.900352 187 161 150
0.0728313 0.303668 0.0121329 0.215902 0.96772 0.130021 185 182 189
-0.0380761 0.0429209 -0.30362 0.105871 0.436259 -0.893572 115 102 102
-0.0185701 0.216692 -0.237278 -0.183643 0.599528 -0.779001 166 153 150
-0.000817653 0.321954 0.0255603 0.238752 0.970902 -0.0186118 184 181 191
-0.0256348 0.303054 -0.182998 0.203386 0.795028 -0.571458 200 192 197
-0.144117 0.349375 -0.0744796 0.0525429 0.961592 -0.269409 157 155 165
-0.244833 0.24588 -0.206771 -0.079978 0.44248 -0.893206 27 26 69
-0.271634 0.352792 -0.0892487 -0.0801809 0.865055 -0.495228 133 129 139
-0.440373 0.135957 -0.175829 -0.104452 0.293558 -0.950217 66 54 56
-0.357701 0.363344 0.0733888 0.0015272 0.973371 0.229233 182 179 184
0.271891 -0.521045 -0.45281 0.643697 0.276822 -0.713459 215 198 197
0.306721 -0.340097 -0.305031 0.0659135 0.282309 -0.957056 180 154 143
0.372434 -0.0389207 -0.209819 0.69134 0.388376 -0.609273 53 45 130
0.271799 -0.164407 -0.242834 -0.192384 0.312252 -0.930316 191 169 161
0.104624 -0.453307 -0.489371 0.0491864 0.245713 -0.968094 193 161 149
0.135012 0.227962 -0.203845 0.630153 0.493447 -0.599513 217 206 207
0.0699929 0.306789 -0.000356262 0.12836 0.985302 0.112709 182 180 186
0.0452715 0.308842 -0.120181 -0.204633 0.972263 -0.113266 197 191 196
-0.250784 0.356661 -0.0735475 0.129676 0.971274 -0.199528 114 118 138
0.332603 -0.0166816 -0.240043 0.0478176 0.370517 -0.927594 108 103 164
0.187989 -0.331287 -0.450181 0.372023 0.363689 -0.854008 159 138 135
0.186054 -0.286884 -0.43351 0.352764 0.353857 -0.866223 171 151 148
0.11538 -0.30181 -0.434358 -0.0620468 0.34281 -0.937353 106 80 73
0.299303 0.420948 0.0230513 0.821231 0.559809 -0.110424 21 39 173
0.103655 0.232172 0.218642 0.639742 0.704751 0.306682 154 157 170
-0.214241 0.0441793 -0.286257 -0.176945 0.287156 -0.941399 108 46 53
-0.137611 0.347848 0.104071 0.165337 0.985983 -0.0224095 197 195 203
-0.0570154 0.304579 -0.200096 0.260564 0.935728 -0.237738 150 148 158
