ply
format ascii 1.0
element vertex 332
property float x
property float y
property float z
property float nx
property float ny
property float nz
property uchar diffuse_red
property uchar diffuse_green
property uchar diffuse_blue
end_header
0.35665 0.0582726 -0.171644 0.67996 0.46728 -0.56507 78 64 79
0.384311 -0.115534 -0.24141 0.677081 0.391392 -0.623196 66 49 68
0.32494 0.160768 -0.152553 0.599777 0.336133 -0.726142 44 55 169
0.378296 -0.222581 -0.301181 0.565658 0.354423 -0.744591 37 48 153
0.312457 0.199575 -0.139134 0.674253 0.478638 -0.562395 27 42 168
0.352885 -0.102723 -0.266902 0.419437 0.35707 -0.83461 44 52 149
0.352787 -0.054242 -0.242019 0.6226 0.394312 -0.675935 40 53 163
0.331294 0.0286849 -0.22319 -0.177822 0.346968 -0.920866 43 51 153
0.299564 0.258135 -0.119125 0.562355 0.472857 -0.678353 46 41 119
0.35016 -0.196655 -0.30545 0.378797 0.300641 -0.875287 196 172 165
0.253363 0.400489 -0.0389876 -0.169511 0.695241 -0.698503 183 167 165
0.2795 -0.0972166 -0.222507 0.360864 0.371093 -0.855609 100 70 53
0.256908 -0.40725 -0.456015 0.390735 0.823433 -0.411443 203 190 189
0.202033 0.00798751 -0.280394 0.662313 0.34391 -0.665633 209 196 193
0.18979 -0.0738047 -0.334177 0.614411 0.4061 -0.676448 162 155 161
0.174113 0.0127194 -0.30237 0.642979 0.327385 -0.692385 187 176 177
0.124037 0.167047 -0.254896 0.606797 0.428373 -0.669548 203 192 192
0.13587 0.193115 -0.220968 0.549872 0.714222 -0.433045 206 198 200
0.122736 -0.387451 -0.460858 -0.254445 0.367525 -0.89453 163 135 127
0.10818 -0.313764 -0.439588 -0.0906352 0.341223 -0.935603 168 140 129
0.0988263 -0.235442 -0.411669 -0.165329 0.37843 -0.910745 166 140 133
0.0757962 -0.157367 -0.38601 -0.0337717 0.34827 -0.936786 170 145 135
0.0265783 0.253591 -0.214402 0.144232 0.530484 -0.835335 124 114 114
0.0172018 0.312915 -0.110512 -0.0498142 0.963323 -0.263682 176 172 181
0.0262889 -0.13661 -0.375156 -0.106483 0.202218 -0.973534 189 162 149
0.0496297 -0.427256 -0.475219 0.0153456 0.578475 -0.815556 177 155 148
0.0469277 -0.402144 -0.461587 0.059849 0.416901 -0.90698 161 136 129
-0.0311428 0.294132 -0.187379 0.464097 0.512173 -0.722698 186 180 186
0.0200611 -0.251148 -0.412493 -0.120265 0.424705 -0.897308 164 139 132
-0.00602761 -0.0960204 -0.355643 0.00799692 0.442252 -0.896855 164 143 137
-0.0181274 -0.0186025 -0.327271 0.0263093 0.29155 -0.956194 170 148 141
-0.00421015 -0.280077 -0.424036 -0.036481 0.377239 -0.925397 173 148 141
-0.0338662 0.00159045 -0.322533 -0.0623405 0.254081 -0.965171 139 115 108
-0.0474715 0.0785281 -0.286352 0.326882 0.402366 -0.855132 148 130 127
-0.0719979 0.326908 -0.120711 0.117104 0.962115 -0.246212 138 138 150
-0.0110564 -0.294981 -0.42695 -0.140728 0.256213 -0.956322 138 114 111
-0.0319964 -0.122578 -0.366684 -0.180176 0.359309 -0.91566 170 148 142
-0.0568719 0.0324638 -0.310807 -0.00279865 0.506168 -0.86243 185 167 161
-0.0779469 0.28818 -0.219632 0.0162853 0.458275 -0.888661 146 132 132
-0.0877889 0.333326 -0.0952151 0.0888132 0.972346 -0.215997 165 163 172
-0.014158 -0.615005 -0.525302 -0.10361 0.22225 -0.969469 168 135 116
-0.0120418 -0.647205 -0.533934 -0.068789 0.22493 -0.971944 62 21 18
-0.0674385 -0.141733 -0.372288 -0.331154 0.222813 -0.916892 115 94 93
-0.0956414 0.00705795 -0.317481 -0.0240876 0.302223 -0.952933 119 103 103
-0.0914286 -0.263572 -0.404204 -0.26901 0.254583 -0.928882 105 84 35
-0.108466 -0.076265 -0.340352 -0.160543 0.225683 -0.960882 132 111 111
-0.144275 0.334994 -0.127143 -0.0501595 0.938634 -0.341247 125 124 137
-0.0560256 -0.603325 -0.517224 -0.151087 0.165072 -0.974641 160 131 111
-0.121458 0.0843498 -0.286788 -0.087929 0.367089 -0.92602 130 113 113
-0.071306 -0.526376 -0.494012 -0.159762 0.353713 -0.921609 159 128 117
-0.129795 0.114746 -0.274348 0.199719 0.348676 -0.915717 124 107 108
-0.0727372 -0.635527 -0.524672 -0.0353031 0.41219 -0.910414 70 53 42
-0.0864223 -0.44606 -0.46397 -0.0814318 0.297768 -0.951159 60 39 31
-0.0982205 -0.359339 -0.431647 -0.186495 0.244898 -0.951443 63 68 24
-0.147105 0.18216 -0.251488 -0.297423 0.321922 -0.898836 145 97 76
-0.149554 0.239931 -0.225788 -0.198004 0.370057 -0.907663 140 124 117
-0.161543 0.301036 -0.17958 -0.213789 0.726978 -0.652532 122 117 135
-0.167316 0.328625 -0.136327 0.0249533 0.930638 -0.365091 109 105 138
-0.103849 -0.420487 -0.453631 -0.197622 0.27613 -0.940583 60 76 33
-0.131883 -0.141182 -0.356231 -0.172353 0.305558 -0.936445 60 40 36
-0.125904 -0.258626 -0.394182 -0.287165 0.330681 -0.898992 114 73 64
-0.136971 -0.079281 -0.335794 -0.173975 0.198913 -0.964452 128 119 130
-0.139644 -0.031837 -0.322047 -0.20518 0.24396 -0.947832 36 37 54
-0.167802 0.247565 -0.218818 -0.143265 0.386853 -0.910945 58 80 48
-0.182095 0.334527 -0.120853 -0.0532174 0.934419 -0.352179 49 74 56
-0.135034 -0.221443 -0.380911 -0.117094 0.238396 -0.964083 179 145 118
-0.136188 -0.195002 -0.373454 -0.189442 0.322439 -0.927439 184 154 141
-0.139558 -0.129827 -0.351444 -0.199335 0.259497 -0.944948 41 23 24
-0.173918 0.286122 -0.191825 -0.160077 0.678523 -0.716926 37 37 100
-0.146078 -0.142508 -0.35414 -0.12092 0.223717 -0.967124 76 52 51
-0.182345 -0.126745 -0.343345 -0.236347 0.227588 -0.94464 72 42 48
-0.140253 -0.257912 -0.392394 -0.10933 0.243184 -0.963799 185 154 142
-0.196784 0.340642 -0.106246 -0.0213179 0.962792 -0.2694 46 106 68
-0.185031 0.198251 -0.237871 -0.150861 0.33771 -0.929081 64 84 47
-0.192751 0.328833 -0.132755 -0.05732 0.923073 -0.38033 68 90 67
-0.189629 0.167175 -0.248749 -0.111205 0.367647 -0.923293 151 90 66
-0.164464 -0.174868 -0.360406 -0.24859 0.270724 -0.930006 59 30 26
-0.13287 -0.629498 -0.513126 0.0328433 0.283723 -0.958344 71 46 51
-0.14929 -0.426661 -0.446612 -0.253851 0.300193 -0.91948 54 43 22
-0.18325 -0.0128784 -0.30818 -0.171384 0.225391 -0.959076 40 32 58
-0.203348 0.186885 -0.240211 -0.138739 0.406819 -0.902911 154 140 115
-0.211052 0.235968 -0.21899 -0.151895 0.404844 -0.901681 83 103 57
-0.217678 0.302254 -0.167301 -0.120364 0.768007 -0.629029 88 82 80
-0.217795 0.337166 -0.110584 0.223926 0.887745 -0.4022 42 86 58
-0.177199 -0.249064 -0.380414 -0.175268 0.275558 -0.945171 185 154 141
-0.214749 0.165043 -0.245864 -0.172254 0.375373 -0.910727 170 146 136
-0.171533 -0.493309 -0.462661 -0.306245 0.267915 -0.913475 111 75 60
-0.218991 0.130997 -0.25469 -0.269138 0.222226 -0.937112 39 35 70
-0.22937 0.286557 -0.181184 -0.100383 0.689111 -0.71767 46 32 41
-0.236973 0.352944 -0.069182 0.185381 0.941876 -0.280184 128 131 148
-0.203226 -0.0257016 -0.308764 -0.23905 0.272362 -0.932027 41 38 53
-0.16719 -0.65564 -0.512671 -0.36114 0.330209 -0.872089 36 30 82
-0.242153 0.202957 -0.227001 -0.186065 0.319162 -0.929256 40 32 38
-0.251721 0.284504 -0.179823 -0.161744 0.617675 -0.769621 162 66 47
-0.183793 -0.690277 -0.51601 -0.133263 0.274754 -0.952235 46 40 96
-0.187999 -0.545725 -0.467156 -0.498079 0.197244 -0.844401 175 141 124
-0.224061 -0.156315 -0.342332 -0.207871 0.266675 -0.941103 181 152 141
-0.265478 0.358133 -0.0674243 0.0152597 0.965244 -0.260904 113 113 127
-0.257531 0.291282 -0.171941 -0.0946652 0.674443 -0.732233 160 42 29
-0.257237 0.277046 -0.185423 -0.102978 0.626029 -0.77297 115 75 69
-0.263176 0.312155 -0.150309 -0.12915 0.750927 -0.647633 59 85 52
-0.222106 -0.341299 -0.403209 -0.205414 0.417497 -0.885156 54 35 32
-0.228856 -0.269443 -0.374627 -0.196303 0.294429 -0.935295 116 92 86
-0.229971 -0.245537 -0.36564 -0.366211 0.251647 -0.895859 86 64 65
-0.243121 -0.0776825 -0.315313 -0.310418 0.248333 -0.91759 70 36 34
-0.265929 0.176356 -0.228911 -0.346142 0.221131 -0.91175 115 103 114
-0.247824 -0.12106 -0.326021 -0.24835 0.252675 -0.935135 172 146 125
-0.279141 0.274118 -0.183428 -0.169372 0.604392 -0.778475 55 44 76
-0.281917 0.330414 -0.124913 -0.134627 0.823164 -0.551613 51 95 55
-0.251873 -0.25957 -0.364882 -0.263827 0.23389 -0.935783 45 29 59
-0.22971 -0.595694 -0.465329 -0.140376 0.189133 -0.971865 147 120 108
-0.251195 -0.343556 -0.399783 -0.0710154 0.420651 -0.904438 57 38 57
-0.260663 -0.147213 -0.330593 -0.18515 0.291856 -0.938371 66 44 47
-0.239681 -0.636382 -0.466247 -0.198445 0.166395 -0.965884 79 61 59
-0.301283 0.286432 -0.169871 -0.0385171 0.616898 -0.7861 155 143 143
-0.27609 -0.21314 -0.346148 -0.324676 0.232025 -0.916925 49 28 42
-0.259982 -0.510259 -0.416234 -0.361761 0.248837 -0.898448 67 50 50
-0.28164 -0.13205 -0.321777 -0.276475 0.327914 -0.903346 56 37 40
-0.295818 0.124575 -0.219554 -0.0202013 0.101923 -0.994588 64 51 53
-0.305799 0.26349 -0.185695 -0.0967898 0.590862 -0.800946 24 34 102
-0.285647 0.012902 -0.276801 -0.38314 0.391818 -0.83647 33 34 99
-0.299185 -0.0133089 -0.281437 -0.239208 0.255338 -0.936794 37 35 87
-0.330307 0.287621 -0.164424 -0.198094 0.622788 -0.756897 29 29 62
-0.331756 -0.125636 -0.304995 -0.119308 0.326545 -0.937621 65 47 44
-0.349379 0.0332094 -0.234995 -0.200797 0.244806 -0.948552 86 73 73
-0.319095 -0.632725 -0.440881 -0.256468 0.337572 -0.905687 111 93 91
-0.375576 0.245068 -0.181798 -0.0717524 0.665243 -0.74317 178 162 157
-0.397806 0.0561047 -0.219439 -0.348502 0.0952271 -0.932459 52 41 41
0.329052 0.170324 -0.139652 0.69874 0.368627 -0.613088 82 53 105
0.396799 -0.280226 -0.315032 0.519425 0.329233 -0.788546 48 62 169
0.333703 0.0539656 -0.21604 -0.231467 0.270795 -0.934394 77 54 111
0.294135 0.280161 -0.113942 -0.589928 0.263211 -0.763352 41 36 42
0.339233 -0.132187 -0.279006 -0.216856 0.266598 -0.939095 197 172 166
0.271327 -0.0861831 -0.217665 0.0163222 0.339238 -0.940559 119 91 78
0.248414 -0.194078 -0.339988 0.648802 0.38537 -0.65616 217 202 201
0.241947 -0.163328 -0.331446 0.6599 0.390898 -0.641662 211 199 201
0.193548 0.10016 -0.242912 -0.0695837 0.353295 -0.932921 221 207 205
0.217935 -0.190487 -0.367385 0.597608 0.382673 -0.704574 180 167 167
0.183953 0.0285383 -0.287701 0.648138 0.351607 -0.675493 119 111 117
0.169268 0.109092 -0.250335 0.546655 0.440908 -0.711877 150 142 146
0.223882 -0.411388 -0.467705 0.406465 0.362654 -0.838612 202 182 175
0.150614 -0.104079 -0.373469 0.292547 0.392049 -0.872189 154 135 134
0.0598383 0.0660876 -0.299282 -0.2959 0.455554 -0.839591 131 115 113
0.113959 -0.420808 -0.479835 -0.15199 0.531001 -0.833629 193 164 153
0.0323956 0.24418 -0.218447 0.170321 0.497251 -0.850725 116 103 102
0.0599955 -0.0362953 -0.337627 -0.113345 0.357221 -0.927117 173 150 143
0.0235161 0.30961 -0.129555 0.00233481 0.979198 -0.202896 133 133 145
0.0470054 0.040548 -0.309234 -0.133916 0.405452 -0.904254 193 172 163
0.0459715 0.0773876 -0.293304 -0.0191483 0.311584 -0.950026 179 159 152
0.0224941 0.224906 -0.234018 0.235547 0.510282 -0.827122 169 156 154
0.0156555 0.231722 -0.230411 0.136061 0.52489 -0.840226 171 157 154
0.0113337 0.316682 -0.0953706 0.320921 0.893944 -0.312847 172 170 179
0.072536 -0.323432 -0.446678 -0.150954 0.622415 -0.767993 175 146 135
0.0833259 -0.398875 -0.452381 -0.143499 0.691769 -0.707717 165 139 131
0.0426695 -0.0944364 -0.350948 -0.20262 0.726078 -0.657081 159 142 139
0.0291584 0.00905493 -0.32384 -0.143273 0.625809 -0.766704 111 91 87
0.0640455 -0.425633 -0.474829 -0.0610648 0.54307 -0.837464 182 156 147
0.0482152 -0.29191 -0.427855 -0.0639976 0.206565 -0.976338 189 160 146
0.00927525 -0.0121362 -0.333151 -0.159134 0.631561 -0.75882 174 151 144
0.0183345 -0.109925 -0.362819 -0.147662 0.761086 -0.63162 109 95 95
0.0271498 -0.242916 -0.406105 -0.0700898 0.406286 -0.911054 173 147 138
0.00869577 -0.179116 -0.385313 -0.0792353 0.202231 -0.976127 176 148 139
0.00585476 -0.0868967 -0.352632 -0.190315 0.147219 -0.970621 170 144 136
-0.0170548 0.0160221 -0.31607 -0.0436833 0.33544 -0.941048 193 169 158
0.017585 -0.268067 -0.417192 0.0344881 0.379654 -0.924485 112 93 90
-0.0157916 -0.047181 -0.331723 0.375585 0.365216 -0.851795 172 150 143
-0.0241667 0.0248585 -0.308737 -0.0715866 0.338627 -0.938194 190 169 160
-0.0428061 0.273709 -0.21695 0.469753 0.539698 -0.698611 135 124 129
0.00148929 -0.363595 -0.445737 -0.390523 0.102203 -0.914903 157 132 126
-0.0448767 0.111054 -0.270402 0.284183 0.434588 -0.854619 168 152 147
-0.0670067 0.307854 -0.190302 0.138132 0.882322 -0.44992 150 148 160
-0.0641224 -0.0587337 -0.342072 -0.123244 0.330583 -0.935696 129 112 112
-0.0886526 0.155596 -0.265324 0.31313 0.376635 -0.871835 165 147 144
-0.092472 0.246126 -0.225629 0.324037 0.206694 -0.923188 187 164 157
-0.10664 0.277481 -0.222082 -0.362079 0.394848 -0.84439 161 137 129
-0.0296667 -0.534657 -0.502802 -0.190918 0.322624 -0.927073 89 51 50
-0.0530302 -0.347966 -0.443566 -0.313048 0.259738 -0.91353 138 120 83
-0.0373744 -0.547286 -0.507229 -0.210739 0.322772 -0.922717 102 57 50
-0.0866991 -0.179295 -0.376958 -0.227573 0.215552 -0.949604 181 149 134
-0.054219 -0.665791 -0.534447 -0.00940077 0.185558 -0.982588 35 19 54
-0.0687074 -0.466676 -0.477143 -0.114927 0.305369 -0.945273 86 66 51
-0.151341 0.274113 -0.207199 -0.259068 0.556537 -0.789399 134 123 123
-0.165238 0.341484 -0.104097 -0.0681292 0.967254 -0.244495 150 137 141
-0.111422 -0.435312 -0.457067 -0.157256 0.294638 -0.942581 82 84 44
-0.184911 0.312656 -0.161091 -0.0935277 0.828244 -0.552507 32 32 51
-0.152529 -0.0546575 -0.327778 -0.183538 0.226758 -0.956501 126 119 130
-0.172774 0.21927 -0.231394 -0.124555 0.353795 -0.926993 41 47 27
-0.170687 0.157327 -0.254937 -0.124839 0.356949 -0.925744 162 74 61
-0.203563 0.317448 -0.151331 -0.0165243 0.775765 -0.630806 140 147 128
-0.169896 -0.285978 -0.396453 -0.303541 0.353316 -0.88489 38 22 20
-0.202035 0.145382 -0.256206 -0.147757 0.384361 -0.911282 129 110 113
-0.198176 0.0603041 -0.283936 -0.240069 0.254521 -0.936795 104 40 44
-0.218122 0.288066 -0.183201 -0.141151 0.601425 -0.786361 36 38 62
-0.161047 -0.586597 -0.49244 -0.156765 0.268781 -0.950358 94 71 66
-0.205046 -0.0916949 -0.328454 -0.225161 0.276679 -0.934212 181 153 143
-0.242299 0.352661 -0.0807714 0.109939 0.966777 -0.230772 122 126 142
-0.239536 0.254999 -0.203009 -0.136945 0.583088 -0.800783 45 31 41
-0.19964 -0.352534 -0.41101 -0.194367 0.291427 -0.936638 58 75 40
-0.227368 0.0429707 -0.283908 -0.218235 0.239939 -0.94594 116 42 42
-0.250403 0.326039 -0.133896 -0.0108719 0.795194 -0.606257 33 50 36
-0.22478 -0.131374 -0.334732 -0.307482 0.157495 -0.938429 154 126 113
-0.23704 -0.182481 -0.346582 -0.256076 0.21885 -0.941557 67 36 35
-0.25897 0.104758 -0.249445 -0.469253 0.139332 -0.872003 155 130 122
-0.231778 -0.376073 -0.408948 0.151905 0.134683 -0.979176 56 30 32
-0.287289 0.335727 -0.115481 -0.134681 0.84701 -0.514234 94 118 91
-0.258037 -0.0542188 -0.305031 -0.255837 0.272671 -0.927469 147 125 89
-0.239053 -0.579656 -0.459966 -0.198072 0.162229 -0.966669 120 88 82
-0.274973 -0.120369 -0.318477 -0.242417 0.301456 -0.922149 101 83 85
-0.248474 -0.557962 -0.449228 -0.34102 0.353501 -0.871057 107 83 82
-0.278775 -0.0705042 -0.302691 -0.256075 0.290685 -0.921915 57 55 32
-0.251 -0.679168 -0.48131 -0.371338 0.44346 -0.815751 32 25 24
-0.285587 -0.0104717 -0.284579 -0.216943 0.252317 -0.943012 33 32 94
-0.268456 -0.60562 -0.454888 -0.390329 0.192058 -0.90042 139 110 95
-0.32148 0.233613 -0.198879 -0.294186 0.10793 -0.949634 68 60 108
-0.278551 -0.559874 -0.437996 -0.386354 0.342949 -0.856222 149 124 116
-0.291852 -0.320048 -0.373348 -0.216888 0.368378 -0.904023 43 36 86
-0.347683 0.347989 -0.0651158 0.0564605 0.958312 -0.280088 70 89 170
-0.317502 -0.00249398 -0.270331 -0.432708 0.489276 -0.757214 84 76 100
-0.330698 0.0511279 -0.237283 -0.0888525 0.0812306 -0.992727 71 58 59
-0.315499 -0.153588 -0.316413 -0.389519 0.220617 -0.894205 32 29 88
-0.354426 0.112158 -0.223424 -0.154428 0.331538 -0.930718 109 69 67
-0.354132 0.170355 -0.189342 -0.163596 0.449761 -0.878038 63 55 60
-0.358793 0.0178605 -0.237739 -0.207867 0.560217 -0.80184 134 122 122
-0.380958 0.207321 -0.180959 -0.354127 0.0207174 -0.934968 56 39 34
-0.400236 0.110032 -0.205523 -0.471573 0.254086 -0.844428 139 117 109
-0.440373 0.135957 -0.175829 -0.104452 0.293558 -0.950217 66 54 56
0.384976 -0.211932 -0.288579 0.625298 0.238129 -0.743167 72 67 144
0.239819 0.418201 -0.0145878 0.0269811 0.758824 -0.650737 179 160 152
0.230103 -0.0662633 -0.28126 0.718418 0.461701 -0.520296 217 201 198
0.19905 0.0974905 -0.235353 0.614181 0.698308 -0.367626 208 198 200
0.224594 -0.228671 -0.38245 0.558658 0.344977 -0.754249 161 150 152
0.181792 -0.100601 -0.356373 0.516746 0.388737 -0.762796 213 196 193
0.161526 0.00305893 -0.316752 0.577759 0.357173 -0.733908 190 178 176
0.132491 0.154596 -0.255791 0.543679 0.45722 -0.703821 192 182 184
0.0764263 0.27272 -0.199631 0.193114 0.64548 -0.738961 167 159 163
0.0686991 -0.224633 -0.40517 -0.151572 0.166657 -0.974296 170 143 133
0.0494794 -0.0780357 -0.349051 -0.053306 0.191862 -0.979973 167 142 135
0.0442391 -0.0133265 -0.330973 -0.0138986 0.271496 -0.96234 171 149 141
0.0312344 0.0288771 -0.314742 -0.0791032 0.502147 -0.861157 192 169 160
0.0567462 -0.382563 -0.454586 -0.14246 0.266031 -0.953379 173 144 133
0.0319481 -0.238736 -0.407376 0.0840314 0.44342 -0.892366 173 146 137
0.00328594 -0.0267534 -0.333462 -0.0476037 0.229918 -0.972045 174 153 145
-0.0107213 0.0274361 -0.31273 -0.0419191 0.39934 -0.915844 193 170 161
-0.0250588 0.0693737 -0.285438 0.0290311 0.5651 -0.824511 169 153 150
-0.00979037 -0.136618 -0.37298 -0.0587805 0.180742 -0.981773 190 163 151
-0.0443478 -0.0436497 -0.338666 0.136248 0.36235 -0.92203 185 162 155
-0.0980875 0.333944 -0.0888276 0.151727 0.960894 -0.231649 153 151 160
-0.0711483 0.056834 -0.303128 0.217549 0.43902 -0.871742 171 151 147
-0.0834453 0.112815 -0.283077 0.264662 0.444296 -0.855895 154 139 139
-0.0999312 0.258121 -0.224942 0.241359 0.0589132 -0.968646 175 148 137
-0.108653 0.323719 -0.155168 0.106712 0.974871 -0.19555 201 195 201
-0.155203 0.0922556 -0.281569 0.0340638 0.245965 -0.96868 23 30 104
-0.178801 0.306715 -0.169121 -0.0974735 0.757414 -0.645619 31 48 101
-0.132865 -0.29568 -0.407462 -0.224252 0.280487 -0.933295 162 137 90
-0.183917 0.177273 -0.245276 -0.152878 0.36428 -0.918656 133 55 35
-0.197492 -0.10407 -0.333139 -0.239421 0.286792 -0.927592 183 154 142
-0.254885 0.20269 -0.225651 -0.262241 0.247942 -0.932606 32 32 86
-0.23856 -0.158602 -0.338749 -0.284168 0.279958 -0.916991 109 86 84
-0.280642 0.342726 -0.107793 -0.184131 0.751175 -0.633901 162 154 151
-0.274964 -0.0081285 -0.285374 -0.253553 0.225529 -0.940663 34 33 100
-0.30794 0.304218 -0.151318 0.0456066 0.765806 -0.641452 170 161 153
-0.273751 -0.40284 -0.405675 -0.374911 0.175248 -0.910346 34 30 86
-0.292059 -0.189705 -0.33394 -0.280044 0.254165 -0.92573 32 30 89
-0.310222 0.0659688 -0.238771 -0.193718 0.0522182 -0.979667 119 100 97
-0.3152 0.114955 -0.225777 -0.0865985 0.371369 -0.924438 57 48 54
-0.317242 -0.125389 -0.307448 -0.264385 0.318804 -0.9102 45 30 28
-0.348436 0.293657 -0.154608 -0.170726 0.661727 -0.730047 25 42 126
-0.30968 -0.436842 -0.392006 -0.253934 0.367762 -0.894578 179 147 132
-0.324696 -0.301591 -0.353013 -0.412742 0.221014 -0.883626 184 155 144
-0.359295 0.0179306 -0.23799 -0.247003 0.476299 -0.843877 138 124 121
-0.366824 -0.0355887 -0.264129 -0.219648 0.189063 -0.957085 182 157 147
-0.404007 0.140168 -0.186064 -0.433662 0.411263 -0.801748 66 57 59
-0.40527 0.0258371 -0.224203 -0.0804411 0.506405 -0.858535 101 92 92
-0.406059 0.0692449 -0.21326 -0.34839 0.18505 -0.918902 56 45 45
-0.424397 0.161325 -0.171784 -0.293464 0.307252 -0.905248 69 53 52
0.384688 -0.384578 -0.349646 -0.388633 0.425387 -0.81732 185 164 164
0.381994 -0.430912 -0.3352 -0.687731 0.113889 -0.716977 181 147 131
0.288529 0.124008 -0.164864 -0.153586 -0.140092 -0.978154 185 158 145
0.20444 0.0460586 -0.254616 0.667704 0.374452 -0.643395 217 206 207
0.206254 -0.019877 -0.291162 0.578236 0.366767 -0.728784 205 190 188
0.251863 -0.54394 -0.483014 0.416033 0.184167 -0.890505 207 186 183
0.1573 0.278052 -0.0378973 0.319815 0.739562 -0.592255 198 188 187
0.182393 -0.614173 -0.497663 -0.225428 0.141379 -0.963947 189 156 142
0.0167601 0.266502 -0.208571 0.152269 0.65802 -0.737444 145 134 134
0.0790244 -0.35903 -0.446967 -0.199524 0.291328 -0.935584 174 145 134
0.0492347 -0.187755 -0.387353 -0.0736059 0.0437815 -0.996326 173 146 137
0.0223716 -0.206999 -0.395219 -0.111447 0.301445 -0.946948 172 145 136
-0.0454653 0.265459 -0.226016 0.532575 0.450154 -0.716745 159 135 127
-0.116113 0.292675 -0.207934 -0.323499 0.641957 -0.695155 120 109 112
-0.0691142 -0.324869 -0.432216 -0.212266 0.300154 -0.929974 79 84 31
-0.204175 -0.476914 -0.442825 -0.511533 0.442452 -0.736594 170 139 118
-0.249002 0.21185 -0.221391 -0.290037 0.348249 -0.891404 43 34 44
-0.251489 -0.461571 -0.409288 -0.147586 0.115686 -0.98226 46 29 24
-0.260288 -0.237467 -0.357464 -0.244369 0.203373 -0.948116 34 30 86
-0.264146 -0.559516 -0.444054 -0.408075 0.374913 -0.832415 119 96 89
-0.308756 -0.139565 -0.3151 -0.276821 0.305078 -0.911206 57 35 58
-0.322537 -0.0496569 -0.282787 -0.141743 0.169561 -0.975273 55 76 43
-0.325355 -0.264433 -0.342819 -0.57375 0.180597 -0.798871 183 155 145
-0.349187 -0.106166 -0.290008 -0.38317 0.322104 -0.865696 188 161 152
-0.380795 0.252285 -0.174877 -0.194674 0.655757 -0.729441 186 168 162
-0.382522 0.0573199 -0.22407 -0.346861 0.115234 -0.93081 101 80 74
-0.415733 0.201276 -0.18207 -0.490298 0.833763 -0.253865 48 42 41
0.303914 -0.27362 -0.267598 0.0178345 0.12461 -0.992045 134 104 92
0.265642 -0.110583 -0.228056 0.150624 0.353966 -0.923049 187 163 152
0.236701 0.0673221 -0.167049 0.576662 0.443231 -0.686299 186 164 156
0.0746126 -0.629993 -0.527765 0.430836 0.183208 -0.883637 189 156 142
-0.0185701 0.216692 -0.237278 -0.183643 0.599528 -0.779001 166 153 150
-0.0460634 0.300697 -0.195341 0.351919 0.831823 -0.429213 162 160 172
-0.100739 -0.225931 -0.389311 -0.288783 0.230455 -0.929245 59 49 94
-0.116095 -0.00749902 -0.317914 -0.284387 0.35689 -0.889805 69 69 92
-0.10498 -0.393169 -0.444705 -0.150372 0.410609 -0.899327 104 105 66
-0.168385 -0.130899 -0.347867 -0.167871 0.247891 -0.954133 28 40 89
-0.233902 -0.00221464 -0.29541 -0.147204 0.0796163 -0.985896 31 33 101
-0.260077 0.350454 -0.0893049 -0.375252 0.670687 -0.639817 139 134 141
-0.248874 -0.380031 -0.409352 0.222125 0.178087 -0.958617 43 35 85
-0.300835 -0.0342835 -0.287924 -0.21423 0.255323 -0.942823 62 75 45
-0.328071 0.260197 -0.181008 -0.118999 0.390022 -0.913084 27 34 110
-0.310576 -0.254237 -0.348665 -0.301861 0.321495 -0.897508 145 129 130
-0.337577 -0.60367 -0.424035 -0.335363 0.294962 -0.894723 50 36 35
0.157947 -0.116546 -0.376834 0.291313 0.338213 -0.894845 157 139 138
0.040972 0.0289384 -0.313275 -0.0958167 0.390732 -0.915503 192 170 160
0.0525829 -0.255088 -0.40277 -0.15698 0.867232 -0.472511 165 143 138
-0.0716104 0.216284 -0.230908 0.246949 0.420375 -0.873098 159 142 139
-0.0905069 0.0444523 -0.305883 -0.081002 0.355121 -0.931305 141 123 122
-0.115701 0.22429 -0.237761 0.157212 0.382968 -0.910286 147 132 132
-0.178064 -0.22316 -0.372785 -0.335624 0.364275 -0.868712 174 146 137
-0.221766 -0.369605 -0.411264 -0.183768 0.299204 -0.936326 48 39 25
-0.0117634 -0.00630977 -0.324067 -0.0432244 0.143984 -0.988636 127 104 98
-0.309538 0.125151 -0.221562 0.0437537 0.292655 -0.955217 67 53 55
0.335464 -0.0409855 -0.244061 -0.232665 0.313966 -0.920485 129 120 167
0.182669 -0.168957 -0.386413 0.530044 0.329836 -0.781192 206 190 187
-0.105537 -0.372227 -0.435621 -0.268091 0.255823 -0.928807 78 83 33
