ply
format ascii 1.0
element vertex 205
property float x
property float y
property float z
property float nx
property float ny
property float nz
property uchar diffuse_red
property uchar diffuse_green
property uchar diffuse_blue
end_header
0.474239 -0.464366 -0.17792 0.968885 0.24357 -0.0439866 59 40 100
0.466903 -0.343309 -0.157556 0.984752 0.143625 0.0981582 69 49 77
0.462091 -0.302293 -0.116514 0.886911 0.339859 0.312866 172 178 199
0.413219 -0.107314 -0.171147 0.943413 0.296144 -0.14923 38 109 65
0.440459 -0.159256 -0.0967717 0.972152 0.227892 -0.0546387 38 107 69
0.431428 -0.103382 -0.078287 0.980208 0.196771 0.021764 58 114 63
0.421156 -0.14643 -0.00255536 0.889692 0.00825168 0.456486 35 62 58
0.421009 -0.00593282 -0.0556263 0.980078 0.182603 -0.0781272 173 188 165
0.358842 -0.400259 0.0317046 0.94416 0.151916 0.292375 170 179 199
0.29626 -0.610214 0.0680436 0.151249 0.245735 0.957464 139 145 168
0.412896 0.0291744 -9.91946e-05 0.986295 0.0689959 0.14987 106 80 93
0.34595 -0.352687 0.0656765 0.902795 0.0116378 0.429914 107 117 142
0.375326 0.209077 -0.0350118 0.90481 0.350326 -0.242055 192 195 212
0.355378 -0.0733621 0.0555254 0.324589 -0.0582937 0.944057 116 117 121
0.379416 0.206791 -0.00427 0.95413 0.238923 -0.180424 77 61 99
0.386094 0.166138 0.0607094 0.960689 0.274267 0.0430569 82 83 99
0.354462 0.267995 -0.0372274 0.939057 0.27386 -0.207784 161 177 175
0.330803 0.28719 -0.0552751 0.800648 0.476575 -0.363097 138 162 128
0.38168 0.182378 0.0787665 0.921531 0.0995054 0.375338 191 198 217
0.377191 0.218328 0.0675865 0.963583 0.237599 0.122698 59 104 178
0.338313 0.330022 -0.0170026 0.928179 0.299033 -0.2215 146 159 151
0.357041 0.313 0.0356956 0.95498 0.296401 0.0126296 138 169 221
0.324763 0.345178 -0.0224179 0.944463 0.285553 -0.162635 148 171 139
0.354261 0.312723 0.104003 0.916713 0.337876 0.213252 34 50 153
0.338495 0.365441 0.0491148 0.868206 0.484982 -0.104932 21 29 178
0.290405 -0.0179987 0.171739 0.906598 0.0811617 0.414117 167 177 194
0.338511 0.375388 0.104012 0.971192 0.233302 0.048526 26 38 183
0.334875 0.389835 0.0794013 0.961424 0.274681 -0.0146571 16 27 189
0.00899408 0.315661 -0.107074 0.215639 0.941608 -0.258602 173 171 180
0.0344815 0.315957 -0.0751015 0.238615 0.970709 -0.0280447 129 130 141
0.0261217 0.316484 -0.0678327 -0.137488 0.990309 -0.0195897 164 163 172
0.0429286 0.313373 -0.0304021 0.272733 0.962089 0.00153442 138 140 152
0.0452222 0.311841 -0.0182404 0.196463 0.980322 0.0192745 140 142 152
0.0278038 0.333906 -0.0391214 0.637344 0.768868 -0.0513112 170 171 182
0.0463016 0.308201 0.0296451 0.266454 0.958848 0.0980504 173 174 185
0.0521916 0.308942 0.0149967 0.375628 0.922399 0.0899142 133 135 145
-0.0290382 0.324041 -0.103392 0.151545 0.964174 -0.217724 180 177 185
0.0418272 0.311196 0.0127248 0.23553 0.967956 0.0870925 172 173 183
0.0470433 0.310207 -0.00719897 0.109946 0.987682 0.111339 138 139 150
0.0487961 0.305441 0.0416111 0.23187 0.963055 0.136975 173 174 186
-0.0392213 0.328124 -0.0959562 0.133676 0.948405 -0.287505 184 181 188
0.101451 0.255545 0.14993 0.364919 0.861858 0.352185 150 152 162
0.0435048 0.305871 0.0596268 0.290411 0.948062 0.129767 172 174 186
0.0882678 0.260099 0.15159 0.263617 0.895411 0.358811 124 128 142
-0.0963329 0.324294 -0.140545 0.1323 0.962815 -0.235552 200 195 201
0.0925768 0.246168 0.186531 0.456087 0.820424 0.344804 151 156 171
0.0746685 0.274089 0.142674 0.537194 0.828305 0.159159 180 183 195
0.10908 0.183222 0.279913 0.411254 0.665521 0.622857 154 162 180
-0.137693 0.344195 -0.0934018 0.295941 0.937072 -0.185246 166 165 178
-0.0639782 0.332328 0.0425111 0.587385 0.804137 -0.0913367 171 173 186
-0.0524685 0.330848 0.0793861 0.380417 0.920298 0.0912916 170 172 186
-0.0657634 0.334233 0.0555389 0.564026 0.825753 -0.00273591 153 155 169
-0.0147414 0.293043 0.163939 0.369564 0.675762 0.637784 172 177 194
-0.0746287 0.340493 0.0725878 0.445291 0.893691 0.0550524 167 168 177
0.0314642 0.194933 0.309928 0.348208 0.783082 0.5153 162 170 188
-0.0240556 0.295399 0.176125 0.385882 0.864268 0.322701 158 163 178
-0.250784 0.356661 -0.0735475 0.129676 0.971274 -0.199528 114 118 138
-0.0419641 0.122877 0.383905 0.12377 0.161758 0.979038 19 39 141
-0.28727 0.354844 -0.0350133 -0.0958852 0.995116 -0.02344 161 156 163
-0.0802603 0.197336 0.361822 0.393599 0.630804 0.668705 54 61 86
-0.0801705 0.208291 0.350356 0.312521 0.669876 0.673496 56 59 72
-0.0922783 0.146227 0.397544 0.342725 0.230807 0.910642 19 33 143
-0.272023 0.355959 0.03109 -0.0281728 0.999298 -0.0247069 121 138 56
-0.345533 0.352618 -0.0401645 0.244076 0.956725 -0.158441 102 123 182
-0.111465 0.236609 0.33463 0.230015 0.76001 0.607846 61 119 82
-0.316041 0.356083 0.0306713 0.0460374 0.998835 0.014517 77 87 43
-0.128647 0.188914 0.398352 0.39345 0.433979 0.810469 87 97 121
-0.132799 0.0798902 0.41677 0.301135 0.0444332 0.952546 27 28 68
-0.230485 0.203439 0.405495 0.331554 0.627018 0.704925 140 149 193
-0.166147 0.212753 0.38492 0.0890393 0.771482 0.629991 127 129 144
-0.222428 0.282364 0.300676 0.129037 0.855708 0.501112 93 97 132
-0.19905 0.135543 0.434322 0.389582 0.182635 0.902701 50 60 143
-0.274562 0.330737 0.218677 0.121337 0.896624 0.425842 125 130 150
-0.204225 0.151098 0.430465 0.505686 0.285909 0.813965 51 61 144
-0.21006 0.166564 0.427979 0.413117 0.394156 0.82096 87 99 157
-0.252852 0.289858 0.295336 0.12661 0.861188 0.492264 80 92 54
-0.235792 0.27141 0.32243 0.124464 0.815644 0.565007 90 92 105
-0.218036 0.21348 0.393524 0.177395 0.62795 0.757766 43 37 104
-0.317143 0.349855 0.175519 0.0701731 0.974217 0.214423 113 108 114
-0.278164 0.292521 0.310332 0.259216 0.819456 0.511176 190 193 206
0.451692 -0.246717 -0.14351 0.982339 0.186169 -0.0187121 152 76 50
0.449585 -0.339326 -0.0788783 0.965441 0.0209578 0.25978 22 38 89
0.445752 -0.183309 -0.123693 0.985219 0.163632 0.0506714 128 82 63
0.435516 -0.134361 -0.0623162 0.97388 0.138661 0.179811 31 103 62
0.368445 -0.528764 0.0132312 0.868657 -0.00634094 0.495373 131 142 170
0.429372 -0.0537041 -0.051367 0.972112 0.209557 0.105276 58 113 58
0.425469 -0.0925232 -0.0139656 0.961901 0.045894 0.269518 82 132 62
0.351326 -0.373264 0.0488211 0.953908 -0.00283674 0.300086 163 174 195
0.388597 0.0880917 -0.0879091 0.929675 0.289315 -0.228039 129 125 139
0.399056 0.107222 -0.0244379 0.988969 0.133292 -0.0645949 193 198 211
0.332996 -0.306926 0.103293 0.920447 -0.0243031 0.390111 136 149 176
0.311323 -0.175305 0.140469 0.880831 0.00282141 0.473423 124 137 160
0.313606 -0.225334 0.137302 0.876301 0.0797414 0.475118 146 157 180
0.35269 0.298056 -0.00708306 0.954361 0.291036 -0.0670294 34 51 109
0.308501 -0.143551 0.147289 0.871871 -0.0965267 0.480127 85 93 117
0.307686 -0.0893315 0.150668 0.940537 0.073486 0.331648 179 186 203
0.409825 0.0499636 0.0064711 0.98698 0.064233 0.147462 105 81 118
0.356713 0.309473 0.0857684 0.98981 0.132102 0.0531441 52 66 150
0.285802 -0.0620029 0.18681 0.821434 0.120437 0.557441 144 157 179
0.322788 0.321815 0.131018 0.768582 0.298892 0.565637 33 98 188
0.319318 0.314776 0.143116 0.277207 0.0731818 0.95802 74 115 183
0.291716 0.430843 0.0992975 0.63063 0.763844 0.137288 41 46 96
0.238287 0.0489233 0.247022 0.757676 0.0397977 0.651416 164 173 190
0.271069 0.376323 0.150839 0.551742 0.355663 0.754376 148 143 142
0.230738 0.131723 0.255965 0.486849 0.46302 0.740669 189 195 211
0.162798 0.0982865 0.299014 0.539168 0.104505 0.83569 80 84 101
0.15598 0.0773479 0.302331 0.641861 -0.138484 0.754213 124 131 150
0.108667 0.25432 0.144132 0.462079 0.832065 0.30684 176 174 182
0.166902 0.170775 0.261989 0.326769 0.567843 0.755498 184 186 198
0.0921172 0.280336 0.0888645 0.478899 0.860135 0.175564 197 196 205
0.152646 0.172425 0.256069 0.497105 0.731489 0.466701 190 192 203
0.138876 0.204194 0.228675 0.171722 0.871076 0.460151 192 193 206
-0.0272689 0.33267 -0.0840899 0.105923 0.937908 -0.330316 183 179 188
0.0406052 0.307438 0.0492794 0.289164 0.946138 0.145622 177 177 189
0.110341 0.227068 0.207204 0.67651 0.692658 0.250118 101 100 112
0.118105 0.176328 0.280953 0.393697 0.677522 0.621262 123 132 151
0.0506897 0.293974 0.108812 0.348859 0.902157 0.253789 196 197 208
-0.0902931 0.330901 -0.106601 0.117714 0.979028 -0.166275 165 163 174
0.0663276 0.276245 0.149333 0.576322 0.792634 0.198958 175 178 191
0.0284568 0.303549 0.104579 0.319939 0.926817 0.196593 200 200 210
0.0357994 0.283569 0.158336 0.324346 0.90792 0.265482 179 181 196
0.0086295 0.307674 0.112166 0.269568 0.947798 0.170326 200 200 210
-0.0108634 0.312653 0.119066 0.289953 0.931874 0.218033 200 200 211
-0.0580679 0.330576 0.100225 0.35203 0.933271 0.0712734 94 96 110
0.0433568 0.206936 0.293511 0.436628 0.672363 0.597732 167 173 191
-0.0519984 0.322064 0.130853 0.274501 0.947078 0.166413 203 202 210
0.0347376 0.158773 0.351154 0.29124 0.544118 0.786838 173 176 189
-0.049356 0.304647 0.195211 0.564613 0.782762 0.261715 198 199 210
-0.0434328 0.293516 0.217429 0.333898 0.876292 0.34731 195 197 209
-0.0218334 0.213294 0.318024 0.243117 0.690924 0.680822 181 182 196
-0.0383074 0.248865 0.283615 0.280691 0.799087 0.53167 195 197 209
-0.147832 0.349734 0.0996676 0.129901 0.987626 -0.0878622 199 195 202
-0.237021 0.355064 0.012848 -0.0456778 0.998927 0.00760909 23 33 121
-0.0716509 0.210409 0.34374 0.32051 0.704011 0.633753 50 60 93
-0.0926464 0.184161 0.394873 0.495504 0.333801 0.801906 159 164 180
-0.109721 0.216838 0.356556 0.370943 0.671873 0.641084 171 183 192
-0.1462 0.254469 0.321243 0.18442 0.784927 0.591506 62 111 70
-0.158042 0.153289 0.416751 0.26211 0.279793 0.923587 145 145 160
-0.146899 0.214704 0.382196 0.0856128 0.670238 0.737191 126 132 153
-0.241377 0.337643 0.188534 0.116519 0.939412 0.322378 185 185 195
-0.151978 0.14605 0.416923 0.241898 0.276366 0.930111 103 107 151
-0.170394 0.22689 0.369578 0.110804 0.814062 0.57011 164 165 176
-0.193221 0.258512 0.329926 0.0990745 0.78538 0.611033 82 65 71
-0.219204 0.295787 0.275422 0.147627 0.876501 0.458205 22 34 122
-0.214182 0.2863 0.29142 0.121368 0.876506 0.465841 100 105 159
-0.345312 0.35878 0.0824986 -0.0535794 0.998378 0.0192374 191 187 191
-0.307519 0.342175 0.21165 0.0510112 0.950887 0.305304 123 120 127
-0.274809 0.285591 0.319752 0.459798 0.806392 0.37191 193 194 206
-0.265851 0.229374 0.410873 0.103449 0.538517 0.83624 173 172 178
0.467794 -0.363033 -0.137821 0.982521 0.14058 0.122019 154 163 179
0.386455 -0.58512 -0.0299681 0.988222 0.151821 0.0191844 169 177 200
0.421851 -0.0665759 -0.00882703 0.948325 -0.0540981 0.312656 98 142 62
0.325968 -0.337175 0.105221 0.867475 0.000231122 0.497481 100 111 138
0.389269 0.177518 0.00740604 0.973843 0.212295 0.0809994 72 62 94
0.388292 0.111534 0.069629 0.79976 -0.0294594 0.599596 183 189 208
0.305407 -0.161895 0.151911 0.885579 -0.0223538 0.463951 145 158 181
0.336812 0.388349 0.0941285 0.924015 0.288704 0.250693 20 32 185
0.244927 0.0749693 0.233894 0.77905 0.146458 0.609615 182 189 205
0.138854 0.289975 0.0753701 0.170521 0.984753 0.0343974 145 142 150
0.0912096 0.281546 0.0855429 0.517529 0.837157 0.177008 197 196 205
0.164545 0.153619 0.283297 0.417298 0.571453 0.706615 185 188 200
-0.00370483 0.321156 -0.0657146 0.231625 0.972527 -0.0232532 177 177 188
0.0937286 0.266075 0.132926 0.19066 0.903454 0.383953 134 136 148
0.0287245 0.316857 0.0303792 0.543883 0.79763 0.260725 180 181 194
0.112272 0.138617 0.318523 0.49963 0.181516 0.847007 192 196 208
0.0845416 0.204592 0.269843 0.425761 0.712439 0.557816 168 173 191
0.021974 0.274045 0.18564 0.397172 0.871383 0.288004 171 175 193
-0.059142 0.324822 0.140867 0.369089 0.912921 0.174204 200 199 209
-0.0255687 0.21653 0.331189 0.456422 0.762155 0.459127 153 160 180
-0.268722 0.358512 -0.0390293 -0.0820955 0.967629 0.238653 146 145 156
-0.346155 0.355419 -0.0285225 0.284104 0.937928 -0.198938 139 154 190
-0.109029 0.176321 0.395216 0.472831 0.277473 0.836325 157 162 179
-0.23343 0.338404 0.180812 0.156533 0.922859 0.351891 187 187 195
-0.159783 0.224644 0.371788 0.0446324 0.860624 0.507281 143 145 160
-0.222635 0.238379 0.365851 0.241797 0.769083 0.591647 30 35 127
-0.294107 0.285486 0.325823 0.0737987 0.817289 0.571482 183 183 192
-0.291345 0.250158 0.369562 0.320335 0.841222 0.43558 181 180 187
0.447159 -0.280909 -0.0753346 0.883879 -0.0610961 0.463708 90 90 124
0.402889 0.081335 -0.0294269 0.983325 0.173209 -0.0554241 191 192 176
0.401886 0.0116422 0.0316704 0.951341 -0.0698583 0.300118 24 31 155
0.384692 0.201091 0.0331974 0.987316 0.157468 -0.0202473 70 110 187
0.180542 0.0744569 0.282998 0.570114 -0.012318 0.821473 131 134 146
0.172938 0.230579 0.191131 0.0594439 0.77117 0.633848 145 150 166
0.123654 0.230551 0.185415 0.421318 0.791284 0.443128 176 176 186
0.10873 0.233729 0.192752 0.362871 0.838348 0.406813 104 107 120
0.0846413 0.246095 0.196167 0.526767 0.794439 0.302295 167 169 183
-0.0118942 0.324134 0.0222501 0.211071 0.976354 -0.0467119 180 179 190
0.0334329 0.27077 0.189362 0.262144 0.846181 0.463959 168 173 190
-0.278104 0.355838 0.00725702 0.00909295 0.999951 -0.0036341 86 96 55
-0.119765 0.25725 0.307803 0.319787 0.844626 0.429351 95 123 94
-0.140571 0.264557 0.305461 0.18519 0.798472 0.572842 80 102 57
-0.120579 0.189796 0.386698 0.468531 0.566843 0.677619 114 124 150
-0.309809 0.29599 0.310898 0.0353594 0.754063 0.65585 171 170 180
0.395931 -0.50429 -0.0598644 0.903819 0.0910796 0.418111 172 179 199
0.447809 -0.218783 -0.0616717 0.986241 0.0877258 0.140116 71 85 96
0.121401 0.299982 0.0612162 0.0879273 0.969096 0.230477 157 153 158
0.136737 0.209876 0.220618 0.286403 0.829202 0.479998 190 192 203
0.110009 0.241179 0.173268 0.459954 0.825492 0.327116 163 163 172
0.0433834 0.150291 0.355911 0.291176 0.507442 0.810999 144 149 165
-0.042155 0.240812 0.305793 0.333404 0.764393 0.551855 172 178 195
-0.280317 0.3556 -0.00333336 -0.000664465 0.999535 -0.0304776 62 65 61
-0.201092 0.255952 0.33666 0.133134 0.808108 0.573792 50 64 60
0.323285 0.408583 0.0534049 0.841158 0.517381 -0.157384 45 39 120
0.0704921 0.297963 0.0464115 0.325376 0.93845 0.115939 153 151 160
-0.0235701 0.309143 0.148169 0.384857 0.842634 0.376635 129 131 145
