ply
format ascii 1.0
element vertex 224
property float x
property float y
property float z
property float nx
property float ny
property float nz
property uchar diffuse_red
property uchar diffuse_green
property uchar diffuse_blue
end_header
0.281646 0.345914 -0.0755263 0.420686 0.567618 -0.707695 58 114 77
0.259883 0.424444 -0.0185606 0.45275 0.781157 -0.429896 89 87 164
0.261126 0.446865 0.00833302 0.266149 0.948439 -0.17213 45 49 158
0.266949 0.447111 0.0626916 -0.37257 0.897535 0.235846 111 112 191
0.253363 0.400489 -0.0389876 -0.169511 0.695241 -0.698503 183 167 165
0.224459 0.19774 -0.0864825 -0.41797 0.635114 -0.649562 105 83 70
0.137243 0.28629 0.0806978 0.016306 0.931783 0.362649 146 145 156
0.0884552 0.259419 -0.213283 0.0308349 0.681867 -0.730825 169 162 169
0.065232 -0.107939 -0.370646 -0.0455797 0.594228 -0.803004 174 156 149
0.0494427 0.311941 -0.0984438 -0.219851 0.974789 -0.0381106 191 185 191
0.0548481 0.311719 -0.0691082 -0.00688557 0.999677 0.0244678 180 178 185
0.0806486 0.296338 0.047759 0.221962 0.955444 0.194577 193 191 198
0.050186 0.310051 0.0041636 0.327325 0.940849 0.0875304 132 133 144
0.0463016 0.308201 0.0296451 0.266454 0.958848 0.0980504 173 174 185
0.0674196 0.279609 0.133465 0.370107 0.882828 0.289199 178 182 196
0.0286924 0.31794 -0.0571191 0.458743 0.88514 -0.0779792 167 167 176
0.0146618 0.311421 -0.122485 0.129411 0.974202 -0.184889 165 166 177
0.0435048 0.305871 0.0596268 0.290411 0.948062 0.129767 172 174 186
0.0132036 0.310125 0.0893552 0.348009 0.89562 0.277047 123 126 139
0.0244021 0.209818 0.301831 0.237454 0.771088 0.590796 166 172 190
-0.0755491 0.32282 -0.143887 0.137744 0.984268 -0.110641 199 195 202
-0.0327599 0.325653 0.0811814 0.253633 0.960362 0.11565 169 171 184
-0.0701914 0.334474 -0.0386315 0.297583 0.948467 -0.108877 175 174 185
-0.0963329 0.324294 -0.140545 0.1323 0.962815 -0.235552 200 195 201
-0.0364227 0.276264 0.225811 -0.157429 0.778966 0.606983 195 199 212
-0.121781 -0.0568582 -0.330611 0.491007 0.82428 0.281915 48 39 90
-0.101961 0.349906 -0.00739595 0.430031 0.898723 -0.0858535 196 194 201
-0.173539 0.255293 -0.213182 -0.124393 0.507626 -0.85255 55 90 51
-0.11878 0.341232 0.141778 0.240176 0.938782 0.24699 178 177 189
-0.107043 0.326543 0.185352 0.121779 0.932938 0.338816 176 177 191
-0.112009 0.334523 0.164501 0.194248 0.94403 0.266598 194 194 204
-0.173918 0.286122 -0.191825 -0.160077 0.678523 -0.716926 37 37 100
-0.185415 0.330864 -0.129023 -0.0388484 0.928515 -0.369257 35 42 33
-0.178492 0.347763 -0.068678 0.25532 0.963349 -0.0822856 119 92 98
-0.184553 0.340317 -0.100143 -0.175075 0.954952 -0.239615 56 84 61
-0.13879 0.320551 0.215224 0.133257 0.876865 0.461899 170 171 185
-0.197408 0.324021 -0.142758 -0.0132987 0.830069 -0.557503 134 145 126
-0.146839 0.3343 0.185665 0.119768 0.935175 0.33332 189 189 201
-0.121534 0.240323 0.33383 0.223049 0.775038 0.59124 52 107 77
-0.19455 0.354773 -0.00514795 0.0559765 0.997891 -0.0328545 99 102 152
-0.134083 0.227135 0.35657 0.265226 0.81015 0.522793 169 176 193
-0.22937 0.286557 -0.181184 -0.100383 0.689111 -0.71767 46 32 41
-0.206869 0.354796 -0.0197327 0.00687158 0.995822 -0.0910492 52 53 141
-0.216205 0.351443 -0.0622167 0.195982 0.978614 -0.0625063 137 157 135
-0.180142 0.340414 0.177683 0.104 0.968794 0.224992 190 188 197
-0.256014 0.261464 -0.195999 -0.137319 0.562856 -0.815068 37 32 65
-0.213882 0.356555 0.0141332 0.0617131 0.998061 -0.00814349 26 32 90
-0.250403 0.326039 -0.133896 -0.0108719 0.795194 -0.606257 33 50 36
-0.188306 0.285276 0.287453 0.203351 0.821428 0.532826 177 180 198
-0.181502 0.254031 0.33463 0.150565 0.81163 0.564435 37 64 52
-0.27929 0.257282 -0.192595 -0.199425 0.524097 -0.82798 24 30 109
-0.245498 0.354955 0.020119 0.0380425 0.997841 -0.053527 29 42 133
-0.313743 0.0157594 -0.256204 -0.329071 0.564576 -0.756945 34 29 28
-0.251067 0.356018 0.0378679 0.0159982 0.999865 -0.00371531 118 135 64
-0.212463 0.279486 0.304078 0.128461 0.854233 0.50377 183 186 202
-0.287289 0.335727 -0.115481 -0.134681 0.84701 -0.514234 94 118 91
-0.301283 0.286432 -0.169871 -0.0385171 0.616898 -0.7861 155 143 143
-0.234707 0.290352 0.290273 0.113123 0.874138 0.472319 24 35 109
-0.33384 0.0206241 -0.242323 -0.293329 0.572265 -0.765814 139 126 123
-0.280641 0.355459 -0.003301 -0.00426438 0.999494 -0.031525 62 65 59
-0.322776 0.270067 -0.18023 -0.0318752 0.567315 -0.822884 35 36 101
-0.300194 0.349528 -0.0629625 -0.0564995 0.982187 -0.179213 140 131 135
-0.286512 0.355698 0.0299736 -0.0228548 0.999607 0.0162435 112 129 58
-0.282067 0.355523 0.051474 0.0048486 0.999114 -0.0418171 77 84 39
-0.247396 0.314678 0.243481 0.129147 0.908728 0.396907 141 145 130
-0.333884 0.26824 -0.17723 -0.303386 0.669464 -0.678067 30 35 114
-0.252937 0.27174 0.329648 0.191442 0.843653 0.501596 77 61 90
-0.245225 0.253159 0.356062 0.286302 0.793129 0.537566 68 67 109
-0.337111 0.294603 -0.156189 -0.205727 0.685872 -0.698037 37 37 80
-0.262921 0.310517 0.2586 0.137873 0.930617 0.339032 120 140 67
-0.29816 0.354597 0.0660933 -0.0106728 0.997526 0.0694929 118 137 55
-0.32689 0.3408 -0.0896783 -0.145688 0.948887 -0.279978 24 37 145
-0.316993 0.355791 0.000533822 0.03639 0.998728 -0.034904 113 127 64
-0.274562 0.330737 0.218677 0.121337 0.896624 0.425842 125 130 150
-0.285981 0.322949 0.244542 0.264557 0.901172 0.343365 182 185 197
-0.267574 0.286759 0.311564 0.391254 0.819718 0.41831 178 185 180
-0.311074 0.351389 0.144489 0.10445 0.987726 0.11613 184 183 177
-0.288439 0.295101 0.309054 0.150969 0.816227 0.557657 184 185 197
-0.306675 0.329693 0.240223 0.154103 0.937458 0.31213 82 80 90
-0.367924 0.323488 -0.12684 0.40298 0.691415 -0.599628 182 174 179
-0.357076 0.351488 -0.0585273 0.284014 0.912309 -0.295004 176 179 198
-0.336744 0.359116 0.0498808 0.266009 0.962813 -0.0472329 187 187 172
-0.331351 0.358362 0.0965717 0.103684 0.993907 0.0374099 185 183 188
-0.305277 0.3156 0.277863 0.0404338 0.870737 0.490082 181 181 192
-0.398088 0.130821 -0.19316 -0.506218 0.576146 -0.641716 58 49 54
-0.321098 0.336628 0.22721 -0.0134122 0.960384 0.278358 147 145 158
-0.337572 0.350012 0.180286 -0.0405291 0.973563 0.224795 152 148 159
-0.430491 0.249463 -0.14429 -0.00966437 0.720689 -0.693192 175 155 146
-0.387092 0.345716 0.110087 -0.337055 0.838181 -0.428773 169 165 171
-0.379245 0.346567 0.166102 -0.26627 0.932893 0.242508 57 51 51
-0.411136 0.230261 -0.167387 -0.20953 0.766042 -0.607681 174 151 140
0.102451 0.300429 -0.126327 0.110702 0.958915 -0.261204 205 201 209
0.0566679 0.305463 -0.116553 0.223625 0.967288 -0.119774 198 193 198
0.0167601 0.266502 -0.208571 0.152269 0.65802 -0.737444 145 134 134
0.0254929 0.16992 -0.262535 0.246197 0.553259 -0.795797 169 153 150
0.017701 0.218533 -0.240919 0.305218 0.528344 -0.792271 171 156 153
0.0214601 0.307279 -0.140655 0.141206 0.970826 -0.193803 105 104 116
0.0344815 0.315957 -0.0751015 0.238615 0.970709 -0.0280447 129 130 141
0.00670675 0.240552 -0.225551 0.110606 0.529276 -0.841209 169 156 153
0.00580661 0.314729 -0.115954 0.0942601 0.955422 -0.279793 170 168 178
0.0663276 0.276245 0.149333 0.576322 0.792634 0.198958 175 178 191
0.0406052 0.307438 0.0492794 0.289164 0.946138 0.145622 177 177 189
-0.0207613 0.294331 -0.187795 -0.107079 0.568936 -0.81538 201 193 197
0.0412347 0.281395 0.147851 0.370765 0.839071 0.398113 181 184 198
0.0357994 0.283569 0.158336 0.324346 0.90792 0.265482 179 181 196
0.000271854 0.308199 0.121301 0.314629 0.911349 0.265427 200 200 211
-0.0475154 0.329121 -0.0891773 0.0449426 0.961653 -0.270563 186 182 190
0.0230146 0.230759 0.285981 0.00250345 0.761782 0.647829 169 175 193
-0.0329825 0.324544 0.0736781 0.241464 0.967556 0.0743686 173 175 187
-0.0194767 0.313573 0.12825 0.337167 0.909139 0.24451 201 201 212
-0.0879494 0.309414 -0.186025 0.190431 0.913746 -0.358893 150 148 158
-0.0276777 0.313839 0.136958 0.328768 0.890761 0.313779 195 195 206
-0.0161852 0.258753 0.255707 0.611103 0.723395 0.32133 151 158 174
-0.134787 0.332968 -0.134227 0.143273 0.956183 -0.255316 141 141 155
-0.157041 0.29534 -0.188184 -0.301209 0.675459 -0.673073 133 123 130
-0.144275 0.334994 -0.127143 -0.0501595 0.938634 -0.341247 125 124 137
-0.165238 0.341484 -0.104097 -0.0681292 0.967254 -0.244495 150 137 141
-0.163909 0.342815 -0.0935649 -0.0708316 0.966597 -0.246319 153 144 149
-0.184911 0.312656 -0.161091 -0.0935277 0.828244 -0.552507 32 32 51
-0.112933 0.304127 0.236601 0.147071 0.84783 0.509465 190 192 204
-0.130891 0.33635 0.169962 0.202843 0.932282 0.299506 178 178 190
-0.203563 0.317448 -0.151331 -0.0165243 0.775765 -0.630806 140 147 128
-0.229328 0.354691 -0.0374645 0.0706923 0.997474 0.00688621 189 187 198
-0.2628 0.283782 -0.178988 -0.138106 0.606497 -0.783 160 82 64
-0.252229 0.337986 -0.116388 -0.00247842 0.855923 -0.517097 153 159 145
-0.195507 0.26572 0.320828 0.151321 0.819445 0.552822 86 72 85
-0.191619 0.233059 0.365549 0.135457 0.75928 0.636511 101 126 113
-0.26433 0.355433 -0.0177162 -0.00854071 0.999622 0.0261547 165 163 186
-0.305799 0.26349 -0.185695 -0.0967898 0.590862 -0.800946 24 34 102
-0.28611 0.355975 -0.0495751 -0.219224 0.975601 -0.0120316 135 130 137
-0.285008 0.35457 -0.0243797 -0.0389502 0.998849 -0.0279988 177 172 178
-0.306901 0.342439 -0.0942763 -0.127561 0.949847 -0.285516 146 134 146
-0.308442 0.350165 -0.0559977 -0.0239204 0.988606 -0.148608 169 162 168
-0.314593 0.35147 -0.0382014 -0.0750254 0.993826 -0.0817327 109 87 121
-0.294327 0.352271 0.128495 -0.00757458 0.996011 0.0889072 123 142 59
-0.320543 0.35404 -0.0208645 -0.0210469 0.988764 -0.147997 36 47 138
-0.346499 0.325923 -0.114915 -0.11311 0.83508 -0.538375 27 50 144
-0.336889 0.350607 -0.0470933 0.021529 0.991441 -0.128769 31 47 153
-0.344764 0.355993 -0.0176497 0.118374 0.977266 -0.175895 151 162 191
-0.334176 0.358566 0.0856954 0.108563 0.993828 0.0228341 191 189 194
-0.323483 0.340603 0.216912 -0.0486013 0.93983 0.338167 155 154 167
-0.3442 0.357028 0.134571 -0.0397162 0.977254 0.208322 182 179 187
-0.340992 0.341563 0.210677 -0.089884 0.92231 0.375851 49 48 54
-0.334492 0.313003 0.278706 -0.0601144 0.863079 0.501478 175 174 182
-0.36664 0.34434 0.190789 -0.139177 0.951265 0.275182 62 60 62
0.276652 0.429676 -0.00517849 0.324907 0.583621 -0.744192 20 38 182
0.268067 0.328826 -0.0864784 -0.188589 0.512859 -0.837502 176 169 159
0.246068 0.267448 -0.0683539 -0.855826 0.507285 0.101118 171 154 147
0.202461 0.161762 -0.129667 0.282477 0.502838 -0.816921 194 182 179
0.111374 0.297083 -0.133198 0.22143 0.946014 -0.236699 215 207 211
0.0921172 0.280336 0.0888645 0.478899 0.860135 0.175564 197 196 205
0.0452222 0.311841 -0.0182404 0.196463 0.980322 0.0192745 140 142 152
0.0105227 0.226518 -0.236728 0.213871 0.51473 -0.830248 172 157 154
0.0125236 0.309591 -0.134026 0.121506 0.976621 -0.177334 141 141 155
0.0284749 0.309182 0.0471402 0.250049 0.960279 0.123852 173 175 189
-0.0146582 0.295869 -0.181575 -0.105558 0.665216 -0.739152 204 195 199
0.0395701 0.299242 0.106793 0.283984 0.917181 0.279522 200 201 211
-0.0314173 0.27945 -0.20285 0.186691 0.568244 -0.801402 156 151 159
0.00158346 0.310332 0.0748245 0.216467 0.961658 -0.168393 160 163 178
0.00177738 0.286556 0.177647 0.334401 0.869675 0.363101 174 178 195
-0.0344636 0.331312 0.0617061 0.228616 0.940395 0.251776 174 177 190
-0.0813388 0.329087 -0.113714 0.113854 0.971966 -0.205716 153 153 167
-0.0519984 0.322064 0.130853 0.274501 0.947078 0.166413 203 202 210
-0.108653 0.323719 -0.155168 0.106712 0.974871 -0.19555 201 195 201
-0.123077 0.295431 -0.202273 -0.353635 0.638005 -0.684027 120 109 113
-0.136777 0.3302 -0.145423 0.151925 0.949698 -0.273848 130 129 141
-0.104185 0.299428 0.232505 0.325511 0.77803 0.537318 191 193 205
-0.185118 0.299195 -0.176999 -0.171625 0.710192 -0.682769 38 61 120
-0.138041 0.25752 0.313948 0.166287 0.80995 0.562432 81 115 67
-0.257531 0.291282 -0.171941 -0.0946652 0.674443 -0.732233 160 42 29
-0.257054 0.319391 -0.142583 -0.0778111 0.792747 -0.604564 71 95 65
-0.255687 0.357864 -0.0663714 0.132526 0.926018 -0.35345 116 118 135
-0.261647 0.355801 0.0345053 0.0116111 0.999924 0.00411964 122 140 57
-0.229466 0.298039 0.274788 0.191843 0.881812 0.430817 22 37 146
-0.30794 0.304218 -0.151318 0.0456066 0.765806 -0.641452 170 161 153
-0.252194 0.338898 0.185894 0.121381 0.968044 0.219448 182 182 194
-0.222635 0.238379 0.365851 0.241797 0.769083 0.591647 30 35 127
-0.312879 0.346699 -0.076823 0.153957 0.981083 -0.11736 153 149 173
-0.323855 0.357185 0.0378274 0.0568214 0.9982 -0.0192044 101 115 56
-0.281967 0.284063 0.330506 0.451314 0.872067 0.189248 186 186 196
-0.355836 0.358683 -0.0243093 0.290455 0.945577 -0.146698 194 191 201
-0.342406 0.326706 0.248681 -0.0813442 0.926379 0.367701 45 43 47
-0.364602 0.355182 0.138892 -0.149627 0.953063 0.263219 180 178 185
-0.435365 0.258395 -0.139288 0.0959532 0.653495 -0.750825 178 155 143
-0.396024 0.343813 0.0937337 -0.54351 0.838658 0.0353377 184 178 183
0.146077 0.282642 -0.0594806 0.254483 0.932547 -0.256114 194 189 192
0.147289 0.279385 -0.0461057 0.187461 0.735913 -0.650608 195 188 188
0.13216 0.297434 0.0653818 0.473535 0.872888 0.117607 141 139 147
-0.01804 0.186717 -0.247442 -0.0611435 0.564809 -0.822954 167 152 149
0.010858 0.320253 0.0267948 0.377318 0.920571 -0.100899 185 183 194
0.024293 0.299656 0.126635 0.374225 0.821688 0.429864 161 165 179
-0.0321543 0.236249 0.305687 0.232202 0.748974 0.620581 185 189 204
-0.190152 0.277674 -0.196151 -0.187211 0.613893 -0.766869 85 71 65
-0.12736 0.277814 0.282692 0.138979 0.844436 0.517312 138 143 160
-0.237021 0.355064 0.012848 -0.0456778 0.998927 0.00760909 23 33 121
-0.271044 0.341877 -0.107123 -0.0664416 0.889917 -0.451258 153 146 147
-0.326123 0.0135493 -0.252011 -0.321921 0.592468 -0.738477 44 38 38
-0.23343 0.338404 0.180812 0.156533 0.922859 0.351891 187 187 195
-0.28727 0.354844 -0.0350133 -0.0958852 0.995116 -0.02344 161 156 163
-0.334457 0.326792 -0.115859 -0.166272 0.844017 -0.50989 17 30 130
-0.364014 0.361246 -0.0183207 0.270988 0.916187 -0.29524 194 188 193
-0.407811 0.272385 -0.150689 -0.01164 0.756305 -0.654116 185 168 164
-0.345554 0.331059 0.238551 -0.129646 0.940931 0.312796 49 47 52
0.259622 0.322986 -0.0760231 -0.726136 0.632552 -0.269452 183 161 152
0.107053 0.244284 0.171015 0.448234 0.809771 0.378627 149 150 162
-0.0686736 0.334114 0.00627781 0.482425 0.870564 -0.0968742 172 174 185
-0.210866 0.340479 0.178811 -0.163841 0.967642 0.191895 191 186 189
-0.279777 0.342065 0.198579 0.0843051 0.951443 0.296054 123 128 147
-0.300628 0.268015 0.342109 0.381079 0.881547 0.278664 187 185 193
-0.405659 0.274478 -0.139252 -0.0331314 0.984377 -0.172932 189 174 171
0.0605349 0.310007 -0.0910655 0.125567 0.991097 -0.0442646 189 185 191
-0.0142 0.325245 -0.0209955 0.332261 0.94267 -0.0312213 172 178 192
-0.0738491 0.335356 -0.0683414 0.0370382 0.983088 -0.179347 167 166 177
-0.0574958 0.27502 0.261062 0.27465 0.77036 0.575424 194 196 208
-0.103444 0.340429 0.114335 0.336703 0.928307 0.157726 199 199 209
-0.316119 -0.473265 -0.401018 -0.681443 0.713853 -0.161402 80 66 62
-0.25345 0.355969 0.0272167 0.0653897 0.99655 -0.0511247 101 119 85
-0.216984 0.27156 0.31764 0.129469 0.835212 0.53447 133 135 149
-0.271523 0.34312 0.190827 0.0613658 0.955769 0.287647 136 140 159
-0.400036 0.308649 -0.113957 -0.309083 0.950879 0.0172068 179 170 171
-0.372559 0.35852 0.0710159 -0.376685 0.922381 0.0855629 187 181 185
0.116974 0.277938 -0.163614 0.660243 0.616875 -0.428421 206 203 211
-0.374072 0.354598 -0.0199299 -0.244321 0.966795 -0.0749278 194 186 188
0.250917 0.39694 -0.0507422 0.254676 0.628186 -0.735203 180 163 156
