ply
format ascii 1.0
element vertex 215
property float x
property float y
property float z
property float nx
property float ny
property float nz
property uchar diffuse_red
property uchar diffuse_green
property uchar diffuse_blue
end_header
0.463449 -0.329091 -0.180472 0.9849 0.171741 0.0218552 138 134 152
0.466903 -0.343309 -0.157556 0.984752 0.143625 0.0981582 69 49 77
0.446116 -0.230236 -0.165444 0.980753 0.193379 -0.0270046 177 51 32
0.462091 -0.302293 -0.116514 0.886911 0.339859 0.312866 172 178 199
0.455211 -0.262888 -0.122366 0.986458 0.156857 0.0479311 46 37 68
0.413219 -0.107314 -0.171147 0.943413 0.296144 -0.14923 38 109 65
0.420983 -0.0801868 -0.112278 0.972049 0.227194 -0.0591935 44 106 58
0.41849 -0.0209061 -0.10732 0.953305 0.266494 -0.142097 27 49 33
0.421009 -0.00593282 -0.0556263 0.980078 0.182603 -0.0781272 173 188 165
0.421156 -0.14643 -0.00255536 0.889692 0.00825168 0.456486 35 62 58
0.40232 0.0752479 -0.0443511 0.980955 0.172462 -0.089344 196 199 204
0.393715 0.132597 0.047755 0.970806 0.214058 0.108239 190 198 217
0.364008 -0.437755 0.0384836 0.924739 -0.0197855 0.380087 77 88 113
0.405394 -0.0745129 0.0316682 0.850126 -0.0177548 0.526282 32 36 133
0.399056 0.107222 -0.0244379 0.988969 0.133292 -0.0645949 193 198 211
0.377186 0.15533 -0.0688496 0.936325 0.29068 -0.196979 183 187 204
0.403014 0.0622673 0.0524498 0.927393 0.36019 0.101016 58 51 105
0.396415 0.114682 0.0411288 0.945942 0.164987 0.279237 191 198 217
0.385586 0.187816 0.0467869 0.991122 -0.0345603 0.128385 73 60 81
0.386094 0.166138 0.0607094 0.960689 0.274267 0.0430569 82 83 99
0.378575 0.21223 0.0496223 0.976993 0.21304 0.00986549 62 114 196
0.375785 0.238973 0.0427757 0.986855 0.0795566 0.140672 83 90 149
0.35269 0.298056 -0.00708306 0.954361 0.291036 -0.0670294 34 51 109
0.338313 0.330022 -0.0170026 0.928179 0.299033 -0.2215 146 159 151
0.372116 0.237968 0.0897919 0.944347 0.248386 0.215672 114 146 205
0.319857 -0.170935 0.124667 0.871649 -0.0124431 0.489973 150 160 180
0.313606 -0.225334 0.137302 0.876301 0.0797414 0.475118 146 157 180
0.360715 0.251785 0.112245 0.85638 0.379003 0.350671 15 29 174
0.345754 0.355808 0.0812942 0.908803 0.406466 0.0941324 100 102 158
0.354261 0.312723 0.104003 0.916713 0.337876 0.213252 34 50 153
0.359554 0.285214 0.111253 0.959315 0.190352 0.20852 33 50 106
0.289755 -0.0298766 0.177468 0.835215 0.0439513 0.548164 110 119 137
0.313819 0.410348 0.0820757 0.878075 0.47536 0.0549269 128 55 82
0.285802 -0.0620029 0.18681 0.821434 0.120437 0.557441 144 157 179
0.0429286 0.313373 -0.0304021 0.272733 0.962089 0.00153442 138 140 152
0.0452222 0.311841 -0.0182404 0.196463 0.980322 0.0192745 140 142 152
0.0476832 0.311117 -0.00691968 0.292511 0.954813 0.0526251 135 136 147
0.050186 0.310051 0.0041636 0.327325 0.940849 0.0875304 132 133 144
0.0521916 0.308942 0.0149967 0.375628 0.922399 0.0899142 133 135 145
0.119859 -0.127504 0.267729 0.495069 -0.0970017 0.863422 118 123 141
0.0487961 0.305441 0.0416111 0.23187 0.963055 0.136975 173 174 186
0.0435048 0.305871 0.0596268 0.290411 0.948062 0.129767 172 174 186
0.0674196 0.279609 0.133465 0.370107 0.882828 0.289199 178 182 196
0.0134507 0.309618 0.0768948 0.248557 0.968342 -0.0230894 154 156 170
0.10908 0.183222 0.279913 0.411254 0.665521 0.622857 154 162 180
-0.0780538 0.338068 -0.00265744 0.489674 0.868661 -0.0751499 161 165 177
-0.0193463 0.322361 0.0840101 0.279289 0.943883 0.176302 157 161 176
-0.0934317 0.34576 -0.0143859 0.462581 0.881245 -0.0970918 162 164 172
0.103828 0.106612 0.338952 0.257669 0.421646 0.86938 114 127 154
-0.0657634 0.334233 0.0555389 0.564026 0.825753 -0.00273591 153 155 169
-0.0524685 0.330848 0.0793861 0.380417 0.920298 0.0912916 170 172 186
-0.0843764 0.34817 0.0489688 0.655978 0.75434 -0.0257683 191 192 203
-0.0746287 0.340493 0.0725878 0.445291 0.893691 0.0550524 167 168 177
-0.0730006 0.341236 0.0745537 0.600513 0.799412 -0.0180326 160 160 170
-0.0147414 0.293043 0.163939 0.369564 0.675762 0.637784 172 177 194
-0.0240556 0.295399 0.176125 0.385882 0.864268 0.322701 158 163 178
-0.0334919 0.295212 0.184597 0.457694 0.848337 0.266159 116 121 136
-0.000142933 0.201234 0.323383 0.474661 0.694501 0.540708 175 182 198
-0.110064 0.340669 0.134191 0.243581 0.949848 0.196108 180 179 192
-0.263897 0.355763 0.0231069 0.00965151 0.999942 -0.00465752 115 134 67
-0.0419641 0.122877 0.383905 0.12377 0.161758 0.979038 19 39 141
-0.0503401 0.169277 0.37429 0.365796 0.468026 0.804453 24 35 127
-0.128752 0.31853 0.217125 0.128902 0.882953 0.451418 176 178 192
-0.0801705 0.208291 0.350356 0.312521 0.669876 0.673496 56 59 72
-0.316041 0.356083 0.0306713 0.0460374 0.998835 0.014517 77 87 43
-0.118903 0.233471 0.342302 0.224475 0.746187 0.626751 66 121 95
-0.15576 0.302682 0.254223 0.133918 0.786429 0.60299 146 151 169
-0.148753 0.26113 0.312642 0.199334 0.792359 0.576571 66 98 60
-0.131315 0.243976 0.333147 0.230881 0.788569 0.569958 49 94 70
-0.169921 0.26806 0.309541 0.168141 0.844972 0.50769 145 162 134
-0.165082 0.260945 0.320332 0.0714655 0.809323 0.583 85 130 84
-0.188306 0.285276 0.287453 0.203351 0.821428 0.532826 177 180 198
-0.274562 0.330737 0.218677 0.121337 0.896624 0.425842 125 130 150
-0.157345 0.217749 0.380044 0.0484669 0.778592 0.625656 129 133 151
-0.222428 0.282364 0.300676 0.129037 0.855708 0.501112 93 97 132
-0.325832 0.349148 0.184032 0.0372158 0.974836 0.219795 168 166 176
-0.252852 0.289858 0.295336 0.12661 0.861188 0.492264 80 92 54
-0.189894 0.194126 0.401414 0.284869 0.55314 0.782871 155 154 163
-0.26796 0.304473 0.275155 0.314107 0.887042 0.338368 139 158 105
-0.235792 0.27141 0.32243 0.124464 0.815644 0.565007 90 92 105
-0.21006 0.166564 0.427979 0.413117 0.394156 0.82096 87 99 157
-0.252937 0.27174 0.329648 0.191442 0.843653 0.501596 77 61 90
-0.218036 0.21348 0.393524 0.177395 0.62795 0.757766 43 37 104
-0.260553 0.269815 0.33694 0.243862 0.840219 0.484316 164 163 183
-0.278164 0.292521 0.310332 0.259216 0.819456 0.511176 190 193 206
0.459139 -0.311419 -0.202759 0.976193 0.215077 -0.0281062 71 57 65
0.460741 -0.436034 -0.142411 0.936542 0.335044 0.103122 134 146 169
0.451692 -0.246717 -0.14351 0.982339 0.186169 -0.0187121 152 76 50
0.449585 -0.339326 -0.0788783 0.965441 0.0209578 0.25978 22 38 89
0.445654 -0.182875 -0.10272 0.982517 0.184095 0.0277388 111 122 120
0.418988 -0.0904599 -0.139996 0.909259 0.414777 -0.0347385 59 121 82
0.436912 -0.153789 -0.0645252 0.97125 0.237984 0.00620818 29 105 66
0.370395 -0.590423 0.0110721 0.819384 -0.0721941 0.568679 164 173 196
0.413255 -0.194647 -0.0032399 0.641545 -0.145543 0.753151 102 120 167
0.408643 0.0659138 -0.00817538 0.984943 0.171476 0.0219803 197 199 211
0.353542 -0.492167 0.0408354 0.908661 -0.0205608 0.417028 140 153 180
0.357531 -0.390842 0.0477769 0.853462 0.0330058 0.520109 155 167 189
0.29626 -0.610214 0.0680436 0.151249 0.245735 0.957464 139 145 168
0.389223 0.0836299 0.0709322 0.863129 0.264415 0.430226 187 191 211
0.33321 -0.252877 0.0971059 0.943636 0.110748 0.311908 169 177 197
0.340352 0.302286 -0.0211353 0.919321 0.316852 -0.233356 66 65 99
0.38168 0.182378 0.0787665 0.921531 0.0995054 0.375338 191 198 217
0.308909 -0.193853 0.144869 0.885851 0.0331895 0.462781 148 160 183
0.302897 -0.179957 0.156709 0.894231 -0.0108157 0.447474 139 151 174
0.304605 -0.127311 0.15956 0.903595 -0.0961977 0.417447 92 102 127
0.347713 0.239514 0.117272 0.8774 0.151988 0.455048 19 32 168
0.338511 0.375388 0.104012 0.971192 0.233302 0.048526 26 38 183
0.321414 0.391428 0.132316 0.830532 -0.233748 0.505547 89 116 195
0.307929 0.322924 0.143982 0.142722 0.0361625 0.989102 153 163 189
0.269278 -0.010598 0.210414 0.874372 0.0298374 0.484338 137 149 170
0.274278 0.0224175 0.202969 0.857824 -0.107528 0.502569 84 95 117
0.275445 0.0608643 0.192058 0.940033 0.171919 0.294589 187 194 212
0.129495 -0.353186 0.207827 0.411175 -0.0374746 0.910785 146 149 165
0.234231 -0.011297 0.250246 0.56997 -0.106225 0.814771 114 121 143
0.239845 0.046029 0.238824 0.478265 -0.135508 0.867698 168 177 194
0.0406052 0.307438 0.0492794 0.289164 0.946138 0.145622 177 177 189
0.12073 0.236825 0.175491 0.452669 0.801374 0.391011 175 175 185
0.162798 0.0982865 0.299014 0.539168 0.104505 0.83569 80 84 101
0.141119 0.189741 0.250753 0.10032 0.776631 0.621917 185 187 199
0.0474623 0.297664 0.0966426 0.31296 0.935157 0.165944 201 200 210
0.0746685 0.274089 0.142674 0.537194 0.828305 0.159159 180 183 195
0.128695 0.170716 0.280992 0.386646 0.710831 0.587558 117 122 140
0.0412347 0.281395 0.147851 0.370765 0.839071 0.398113 181 184 198
0.107054 0.193304 0.273297 0.482287 0.536493 0.692513 162 168 185
0.123236 0.131763 0.319249 0.514126 0.21055 0.83147 180 184 197
0.0250622 0.288493 0.15674 0.326974 0.908076 0.261697 181 184 198
-0.0440698 0.329084 0.0707936 0.238534 0.968769 0.0677249 173 175 186
0.0129879 0.292417 0.154935 0.332407 0.872464 0.358207 179 183 197
-0.010092 0.259113 0.206921 0.827449 0.541916 0.147159 165 172 188
-0.0209706 0.287425 0.186999 0.554741 0.789589 0.26232 162 168 183
0.0300267 0.203603 0.308311 0.498049 0.647563 0.576724 164 170 188
-0.147832 0.349734 0.0996676 0.129901 0.987626 -0.0878622 199 195 202
-0.0202954 0.211471 0.330566 0.325051 0.69817 0.637888 154 161 180
-0.0557156 0.155614 0.376962 0.320908 0.244556 0.914992 19 35 151
-0.109721 0.216838 0.356556 0.370943 0.671873 0.641084 171 183 192
-0.0947878 0.170736 0.388777 0.400229 0.389341 0.829596 141 136 151
-0.16298 0.299813 0.261473 0.00244045 0.861954 0.50698 141 146 163
-0.334176 0.358566 0.0856954 0.108563 0.993828 0.0228341 191 189 194
-0.124724 0.149756 0.408761 0.248621 0.213676 0.944738 137 141 174
-0.138806 0.215594 0.375355 0.28368 0.66559 0.690301 124 133 157
-0.130151 0.181522 0.404442 0.30775 0.325179 0.894175 88 95 117
-0.219204 0.295787 0.275422 0.147627 0.876501 0.458205 22 34 122
-0.203635 0.28339 0.293894 0.17908 0.838995 0.513826 171 173 196
-0.166147 0.212753 0.38492 0.0890393 0.771482 0.629991 127 129 144
-0.170394 0.22689 0.369578 0.110804 0.814062 0.57011 164 165 176
-0.193221 0.258512 0.329926 0.0990745 0.78538 0.611033 82 65 71
-0.158042 0.153289 0.416751 0.26211 0.279793 0.923587 145 145 160
-0.278181 0.322796 0.236901 0.283424 0.933545 0.219463 174 177 179
-0.302462 0.337195 0.222656 0.0857501 0.920275 0.381759 99 97 110
-0.187694 0.268263 0.313846 0.183848 0.838464 0.513008 48 44 55
-0.323674 0.312244 0.281821 -0.0812719 0.838198 0.539277 179 178 187
0.413052 0.00286799 -0.0997518 0.943088 0.294346 -0.154741 81 52 60
0.37906 -0.613219 -0.00958372 0.956725 0.0316259 0.289269 161 170 194
0.425469 -0.0925232 -0.0139656 0.961901 0.045894 0.269518 82 132 62
0.382835 0.132876 -0.0569621 0.903806 0.367204 -0.219765 195 200 218
0.346428 -0.457009 0.0570333 0.829204 0.0823268 0.55285 112 121 146
0.385273 0.195701 0.0126618 0.984033 0.169881 0.0530908 49 88 172
0.389269 0.177518 0.00740604 0.973843 0.212295 0.0809994 72 62 94
0.332996 -0.306926 0.103293 0.920447 -0.0243031 0.390111 136 149 176
0.351555 0.247308 0.119562 0.602104 -0.170639 0.77997 14 29 165
0.30657 -0.0913946 0.14214 0.886104 0.256525 0.386023 184 192 209
0.30061 -0.14687 0.164075 0.908849 -0.0909108 0.407098 138 151 176
0.294779 0.421189 0.117825 0.762721 0.556352 0.32974 71 56 108
0.295953 0.313077 0.155353 0.607032 0.165744 0.777201 154 150 150
0.263613 0.0244839 0.219521 0.887042 -0.0652894 0.457049 99 112 135
0.245502 0.0657679 0.239769 0.778791 -0.061911 0.62422 179 185 202
0.144112 0.296606 0.0585318 0.361855 0.909914 0.202776 148 143 148
0.168836 0.21745 0.206801 0.178379 0.726586 0.663516 137 140 156
0.0921172 0.280336 0.0888645 0.478899 0.860135 0.175564 197 196 205
0.0376057 0.302244 0.0960688 0.297091 0.936689 0.185338 197 198 209
0.086664 0.25486 0.176278 0.533591 0.785489 0.313509 165 167 180
0.0628201 0.271245 0.158007 0.385845 0.90958 0.154234 169 173 188
0.112272 0.138617 0.318523 0.49963 0.181516 0.847007 192 196 208
0.0347376 0.158773 0.351154 0.29124 0.544118 0.786838 173 176 189
-0.0406371 0.253471 0.275487 0.277723 0.800257 0.531469 196 198 210
-0.0383074 0.248865 0.283615 0.280691 0.799087 0.53167 195 197 209
-0.102952 0.169237 0.393835 0.375607 0.325449 0.867756 164 167 183
-0.23343 0.338404 0.180812 0.156533 0.922859 0.351891 187 187 195
-0.121324 0.158796 0.406874 0.247637 0.41303 0.876403 159 162 177
-0.133729 0.148495 0.411698 0.277841 0.237578 0.930785 138 141 173
-0.333006 0.354082 0.138184 0.0942903 0.982549 0.160334 170 166 171
-0.180215 0.164646 0.417545 0.297481 0.407649 0.863323 125 122 136
-0.222635 0.238379 0.365851 0.241797 0.769083 0.591647 30 35 127
0.461316 -0.559449 -0.204364 0.970347 0.0662409 0.232465 4 19 158
0.402889 0.081335 -0.0294269 0.983325 0.173209 -0.0554241 191 192 176
0.362787 0.224979 -0.0332678 0.904195 0.345947 -0.250504 144 141 157
0.127213 0.307805 0.0172579 0.174656 0.974198 0.14295 165 163 173
0.105683 0.262128 0.134495 0.268412 0.891012 0.366132 177 176 183
0.158578 0.142829 0.28521 0.42525 0.399965 0.811905 182 185 198
0.0899563 0.248754 0.187063 0.49715 0.791039 0.356508 162 164 177
0.0956032 0.229065 0.226546 0.28043 0.78786 0.548303 162 167 183
0.0551619 0.267502 0.172353 0.335077 0.929905 0.151662 169 173 187
0.021974 0.274045 0.18564 0.397172 0.871383 0.288004 171 175 193
-0.127348 0.254244 0.315574 0.196822 0.776354 0.598778 89 131 73
-0.123268 0.180538 0.395776 0.431766 0.806942 0.403018 98 107 131
-0.139052 0.0878634 0.418265 0.296656 0.087224 0.950993 25 24 65
-0.291839 0.279162 0.334103 0.245589 0.826989 0.505743 184 183 193
-0.282275 0.228073 0.401954 -0.032089 0.644205 0.764179 175 173 179
0.363994 0.268637 0.0310349 0.937361 0.341285 0.0698557 126 152 203
0.386336 0.152547 0.0705267 0.902973 0.391198 0.177776 184 192 213
0.180542 0.0744569 0.282998 0.570114 -0.012318 0.821473 131 134 146
0.115043 0.244174 0.161081 0.511443 0.806279 0.29722 177 175 182
0.0931914 0.234389 0.217455 0.321005 0.805176 0.498646 162 167 183
-0.0661456 0.256376 0.292484 0.397305 0.846379 0.354672 163 168 187
-0.0525657 0.246175 0.30434 0.243116 0.780455 0.576007 163 168 187
-0.127567 0.197648 0.387087 0.395287 0.587551 0.706068 112 123 148
-0.217221 0.173089 0.42823 0.401226 0.466292 0.788409 149 157 180
0.315903 0.407217 0.0659316 0.832947 0.538758 -0.126253 88 52 110
0.0898206 0.294925 0.0395794 0.2453 0.959918 0.135594 185 181 185
0.120601 0.234219 0.173992 0.599747 0.725769 0.336992 175 176 185
0.0908386 0.138426 0.336729 0.315674 0.0623098 0.946819 153 160 179
0.421851 -0.0665759 -0.00882703 0.948325 -0.0540981 0.312656 98 142 62
0.329987 0.40084 0.0686518 0.959332 0.282253 0.00402851 21 25 170
-0.0900806 0.323246 0.17943 0.282521 0.907571 0.310639 202 203 215
0.237104 0.0387783 0.249317 0.740286 -0.152442 0.654781 147 156 177
