ply
format ascii 1.0
element vertex 222
property float x
property float y
property float z
property float nx
property float ny
property float nz
property uchar diffuse_red
property uchar diffuse_green
property uchar diffuse_blue
end_header
0.279836 0.429871 0.120338 -0.140975 0.719322 0.680222 154 152 183
0.317289 0.285301 0.143424 0.302549 -0.0349435 0.952493 161 168 188
0.081141 0.311488 -0.108931 -0.168394 0.972391 -0.161557 157 149 154
0.180426 0.194258 0.236059 0.297379 0.604666 0.738881 141 146 164
0.0623128 0.309312 -0.0347444 0.136004 0.990708 -0.000764125 181 178 185
0.0806486 0.296338 0.047759 0.221962 0.955444 0.194577 193 191 198
0.0675281 0.301896 0.0333788 0.315825 0.942681 0.107741 141 139 148
0.0344815 0.315957 -0.0751015 0.238615 0.970709 -0.0280447 129 130 141
0.02666 0.319922 -0.0449521 0.338343 0.939988 -0.044114 174 173 183
0.00421238 0.309421 -0.124167 0.199165 0.979763 -0.0199265 158 161 174
0.0435048 0.305871 0.0596268 0.290411 0.948062 0.129767 172 174 186
0.0674196 0.279609 0.133465 0.370107 0.882828 0.289199 178 182 196
-0.00524169 0.313956 -0.119652 0.180225 0.981838 -0.0592721 158 160 173
0.132699 0.127604 0.317871 0.499748 0.128849 0.856534 166 171 185
0.104832 0.20204 0.266402 0.51754 0.612949 0.597031 164 170 186
0.10908 0.183222 0.279913 0.411254 0.665521 0.622857 154 162 180
0.101006 0.180743 0.288546 0.420049 0.65785 0.625135 148 155 173
0.0134507 0.309618 0.0768948 0.248557 0.968342 -0.0230894 154 156 170
0.0842584 0.175841 0.304816 0.397652 0.678612 0.617542 128 135 150
0.101187 0.114677 0.340127 0.232674 0.532764 0.813649 120 133 159
-0.0170612 0.318961 0.0954105 0.299395 0.940762 0.159152 121 123 136
-0.013873 0.315983 0.107387 0.279994 0.937864 0.204971 189 191 204
-0.025946 0.319409 0.104256 0.320687 0.879222 0.352319 166 169 183
-0.0877889 0.333326 -0.0952151 0.0888132 0.972346 -0.215997 165 163 172
-0.0933014 0.339619 -0.0655573 0.00900658 0.985822 -0.167553 151 151 163
-0.0524685 0.330848 0.0793861 0.380417 0.920298 0.0912916 170 172 186
0.0252701 0.194398 0.317843 0.373542 0.718452 0.586766 165 173 191
0.0333453 0.178828 0.330981 0.376805 0.493104 0.784134 163 168 183
-0.0103301 0.250526 0.263951 0.692724 0.692939 0.199922 136 140 154
0.0236977 0.168557 0.347277 0.386103 0.56169 0.73173 192 194 207
-0.178492 0.347763 -0.068678 0.25532 0.963349 -0.0822856 119 92 98
-0.112009 0.334523 0.164501 0.194248 0.94403 0.266598 194 194 204
-0.194782 0.351298 -0.0547187 0.0343633 0.993909 -0.104704 57 87 71
-0.129764 0.344546 0.138921 0.187744 0.956918 0.221496 191 190 200
-0.0503401 0.169277 0.37429 0.365796 0.468026 0.804453 24 35 127
-0.0386489 0.107659 0.386173 0.222513 0.202613 0.953643 29 64 138
-0.202845 0.352034 -0.0476927 -0.0203439 0.998231 -0.0558608 59 81 71
-0.150945 0.349791 0.131219 0.132165 0.9688 0.209665 171 170 181
-0.211085 0.35336 -0.0407204 0.0503768 0.998298 -0.0294009 79 60 66
-0.0838895 0.230752 0.326145 0.351862 0.760193 0.546169 126 127 139
-0.155035 0.344287 0.153356 0.108421 0.964592 0.240434 189 188 199
-0.146839 0.3343 0.185665 0.119768 0.935175 0.33332 189 189 201
-0.0821488 0.180892 0.375722 0.347501 0.524017 0.777592 41 49 88
-0.212861 0.35543 -0.000979513 0.0186459 0.998684 -0.0477818 25 35 124
-0.19702 0.357432 0.0513496 -0.0565139 0.997386 -0.0450281 151 151 165
-0.236973 0.352944 -0.069182 0.185381 0.941876 -0.280184 128 131 148
-0.101873 0.232839 0.334766 0.212047 0.745863 0.631446 100 132 107
-0.0899136 0.1547 0.393711 0.396094 0.304297 0.866321 25 35 132
-0.1732 0.336746 0.190583 0.137068 0.944852 0.297436 172 170 181
-0.109501 0.229728 0.342101 0.271385 0.723457 0.634791 83 130 98
-0.241458 0.355039 -0.000333413 0.0240157 0.999569 0.016854 22 31 107
-0.0987623 0.129558 0.404421 0.345258 0.329225 0.878867 14 32 149
-0.180142 0.340414 0.177683 0.104 0.968794 0.224992 190 188 197
-0.104815 0.160589 0.398231 0.362855 0.253666 0.896655 144 149 181
-0.12892 0.237213 0.341487 0.247125 0.775375 0.581139 75 114 99
-0.251067 0.356018 0.0378679 0.0159982 0.999865 -0.00371531 118 135 64
-0.297299 0.352706 -0.0527324 -0.111469 0.990306 -0.0828654 144 136 141
-0.274278 0.355687 0.019551 0.00246092 0.999768 -0.0214011 116 132 58
-0.167692 0.243673 0.344696 0.165724 0.811661 0.560127 53 99 75
-0.286512 0.355698 0.0299736 -0.0228548 0.999607 0.0162435 112 129 58
-0.181502 0.254031 0.33463 0.150565 0.81163 0.564435 37 64 52
-0.294674 0.355738 0.0373076 0.0240963 0.99957 0.0166988 74 83 43
-0.161514 0.119928 0.424613 0.257603 0.0803173 0.962908 24 35 123
-0.212463 0.279486 0.304078 0.128461 0.854233 0.50377 183 186 202
-0.20877 0.274494 0.310375 0.133559 0.83567 0.532746 165 167 180
-0.300769 0.355452 0.0554377 0.0150081 0.999559 0.025648 111 127 53
-0.227097 0.29301 0.283407 0.0945037 0.89072 0.444618 21 34 128
-0.186577 0.120746 0.431943 0.356444 0.0928329 0.929693 17 31 134
-0.228618 0.259263 0.340545 0.141918 0.752031 0.643667 168 172 191
-0.203199 0.15981 0.42753 0.381182 0.32963 0.863739 31 43 137
-0.286176 0.344708 0.175124 0.0231479 0.97541 0.219179 116 119 138
-0.334621 0.330036 0.241419 -0.0968649 0.942604 0.319555 40 39 43
-0.247466 0.29859 0.278871 0.16608 0.859291 0.483774 100 124 76
-0.242751 0.287538 0.297598 0.149423 0.871914 0.466304 42 51 80
-0.336744 0.359116 0.0498808 0.266009 0.962813 -0.0472329 187 187 172
-0.282428 0.328254 0.225696 0.326445 0.860009 0.392196 147 150 165
-0.262935 0.31133 0.25765 0.158101 0.925048 0.345386 120 140 67
-0.334176 0.358566 0.0856954 0.108563 0.993828 0.0228341 191 189 194
-0.252937 0.27174 0.329648 0.191442 0.843653 0.501596 77 61 90
-0.250256 0.245885 0.37255 0.468205 0.733734 0.492359 178 185 211
-0.3442 0.357028 0.134571 -0.0397162 0.977254 0.208322 182 179 187
-0.306675 0.329693 0.240223 0.154103 0.937458 0.31213 82 80 90
-0.278164 0.292521 0.310332 0.259216 0.819456 0.511176 190 193 206
-0.337572 0.350012 0.180286 -0.0405291 0.973563 0.224795 152 148 159
-0.321098 0.336628 0.22721 -0.0134122 0.960384 0.278358 147 145 158
-0.302835 0.31036 0.28691 0.0517699 0.875341 0.480725 178 178 189
-0.307593 0.30323 0.302303 0.0486176 0.752864 0.656379 114 109 118
-0.349481 0.337766 0.217735 -0.104783 0.936939 0.333415 53 51 57
-0.336913 0.318279 0.269384 -0.0940136 0.887188 0.451727 153 152 162
-0.318647 0.290187 0.317207 -0.0125237 0.716237 0.697745 176 175 183
-0.36664 0.34434 0.190789 -0.139177 0.951265 0.275182 62 60 62
-0.379245 0.346567 0.166102 -0.26627 0.932893 0.242508 57 51 51
-0.350462 0.323018 0.255436 -0.149777 0.893733 0.422856 61 58 61
0.313706 0.366388 0.143454 0.40131 0.14566 0.904286 43 103 191
0.233785 0.0968047 0.252499 0.621371 0.149522 0.769117 182 189 206
0.138854 0.289975 0.0753701 0.170521 0.984753 0.0343974 145 142 150
0.115774 0.311386 0.0143276 0.152791 0.978502 0.138527 146 145 156
0.034643 0.308947 -0.124472 -0.0273557 0.992592 -0.118372 127 123 132
0.138876 0.204194 0.228675 0.171722 0.871076 0.460151 192 193 206
0.0235161 0.30961 -0.129555 0.00233481 0.979198 -0.202896 133 133 145
0.0503256 0.31005 0.00437517 0.28864 0.952569 0.096437 131 133 143
0.10873 0.233729 0.192752 0.362871 0.838348 0.406813 104 107 120
0.102816 0.243205 0.184093 0.575796 0.751143 0.322867 100 101 112
0.062617 0.289505 0.110923 0.394442 0.858234 0.328403 180 181 193
0.118105 0.176328 0.280953 0.393697 0.677522 0.621262 123 132 151
0.0506897 0.293974 0.108812 0.348859 0.902157 0.253789 196 197 208
0.0474623 0.297664 0.0966426 0.31296 0.935157 0.165944 201 200 210
0.107054 0.193304 0.273297 0.482287 0.536493 0.692513 162 168 185
0.0284568 0.303549 0.104579 0.319939 0.926817 0.196593 200 200 210
0.030907 0.287007 0.1468 0.337429 0.851706 0.400922 180 183 197
0.0167482 0.306857 0.102945 0.3033 0.936055 0.178357 198 198 209
0.0317045 0.299168 0.117144 0.334405 0.902133 0.27263 192 193 204
0.0086295 0.307674 0.112166 0.269568 0.947798 0.170326 200 200 210
0.0250622 0.288493 0.15674 0.326974 0.908076 0.261697 181 184 198
-0.04912 0.32558 -0.100616 0.180541 0.981395 -0.0653386 178 177 188
0.0129879 0.292417 0.154935 0.332407 0.872464 0.358207 179 183 197
-0.0704551 0.328413 -0.109301 0.123559 0.975916 -0.179778 149 150 163
-0.0869752 0.322178 -0.147756 0.144158 0.97468 -0.17093 201 196 202
-0.0147414 0.293043 0.163939 0.369564 0.675762 0.637784 172 177 194
-0.0914252 0.341109 -0.0549024 0.0824908 0.980082 -0.18065 151 151 162
0.0314642 0.194933 0.309928 0.348208 0.783082 0.5153 162 170 188
0.0429629 0.17379 0.334499 0.391424 0.710327 0.584998 186 189 203
-0.0995101 0.352727 0.00494785 0.565084 0.81293 -0.140803 196 194 202
-0.137693 0.344195 -0.0934018 0.295941 0.937072 -0.185246 166 165 178
-0.0143333 0.139613 0.371463 0.277131 0.273175 0.921181 103 107 127
-0.107043 0.326543 0.185352 0.121779 0.932938 0.338816 176 177 191
-0.146492 0.345295 0.145354 0.141622 0.969188 0.20154 191 190 199
-0.14142 0.338973 0.167571 0.149551 0.946169 0.287051 171 170 181
-0.0801705 0.208291 0.350356 0.312521 0.669876 0.673496 56 59 72
-0.144177 0.329845 0.195622 0.137607 0.914884 0.379543 181 183 196
-0.229328 0.354691 -0.0374645 0.0706923 0.997474 0.00688621 189 187 198
-0.145188 0.278356 0.288283 0.155226 0.825792 0.542193 136 142 126
-0.256007 0.35576 -0.0257681 0.0116912 0.999349 0.0341077 180 178 192
-0.22405 0.357815 0.0774637 -0.0860815 0.995074 -0.0491674 149 148 151
-0.148753 0.26113 0.312642 0.199334 0.792359 0.576571 66 98 60
-0.26433 0.355433 -0.0177162 -0.00854071 0.999622 0.0261547 165 163 186
-0.172881 0.292068 0.271035 0.109271 0.819183 0.563027 142 139 150
-0.261647 0.355801 0.0345053 0.0116111 0.999924 0.00411964 122 140 57
-0.169921 0.26806 0.309541 0.168141 0.844972 0.50769 145 162 134
-0.135005 0.18931 0.403358 0.390307 0.300893 0.870129 86 93 115
-0.133729 0.148495 0.411698 0.277841 0.237578 0.930785 138 141 173
-0.188306 0.285276 0.287453 0.203351 0.821428 0.532826 177 180 198
-0.308442 0.350165 -0.0559977 -0.0239204 0.988606 -0.148608 169 162 168
-0.292451 0.355676 0.0480363 0.0121272 0.999899 -0.00749098 81 90 43
-0.167841 0.220335 0.37838 0.0372277 0.801102 0.597369 133 134 149
-0.181317 0.228501 0.367012 0.0904098 0.790717 0.605468 168 175 178
-0.334827 0.351809 -0.0364388 0.0289792 0.995018 -0.0953946 41 58 157
-0.323855 0.357185 0.0378274 0.0568214 0.9982 -0.0192044 101 115 56
-0.189894 0.194126 0.401414 0.284869 0.55314 0.782871 155 154 163
-0.344764 0.355993 -0.0176497 0.118374 0.977266 -0.175895 151 162 191
-0.313582 0.352598 0.133324 0.157498 0.983014 0.0942211 183 183 173
-0.218036 0.21348 0.393524 0.177395 0.62795 0.757766 43 37 104
-0.285981 0.322949 0.244542 0.264557 0.901172 0.343365 182 185 197
0.244576 0.443615 0.0553255 -0.714635 0.694999 -0.0792052 181 169 167
0.105778 0.306737 0.00875484 -0.313773 0.90755 0.279106 147 143 150
0.159656 0.217347 0.188838 -0.163081 0.819411 0.549518 150 151 163
0.0912096 0.281546 0.0855429 0.517529 0.837157 0.177008 197 196 205
0.00242579 0.31912 -0.0848975 0.19949 0.965814 -0.165547 169 168 179
0.0284749 0.309182 0.0471402 0.250049 0.960279 0.123852 173 175 189
0.0395701 0.299242 0.106793 0.283984 0.917181 0.279522 200 201 211
0.0539626 0.278822 0.150469 0.32415 0.887255 0.328184 177 180 194
0.0935949 0.198987 0.264963 0.36735 0.833831 0.412043 166 172 190
0.0713897 0.181706 0.304343 0.369606 0.7283 0.577036 135 143 160
-0.0108634 0.312653 0.119066 0.289953 0.931874 0.218033 200 200 211
-0.00338703 0.2908 0.169875 0.28954 0.881421 0.37318 177 181 196
-0.0440698 0.329084 0.0707936 0.238534 0.968769 0.0677249 173 175 186
-0.0998182 0.332391 -0.100689 0.125801 0.973868 -0.189091 154 153 164
-0.101078 0.177806 0.389731 0.456728 0.357315 0.814693 168 172 186
-0.296314 0.353336 -0.0429808 -0.0934243 0.990599 -0.0999306 163 155 159
-0.166147 0.212753 0.38492 0.0890393 0.771482 0.629991 127 129 144
-0.195731 0.265081 0.321203 0.160147 0.817373 0.553402 89 75 87
-0.252194 0.338898 0.185894 0.121381 0.968044 0.219448 182 182 194
-0.219204 0.295787 0.275422 0.147627 0.876501 0.458205 22 34 122
-0.164453 0.159547 0.415507 0.25065 0.313917 0.915768 155 154 163
-0.336889 0.350607 -0.0470933 0.021529 0.991441 -0.128769 31 47 153
-0.332323 0.353254 -0.0246991 -1.94802e-05 0.990199 -0.139662 59 76 162
-0.346488 0.360659 0.069644 0.388593 0.913781 -0.118323 193 188 193
-0.345312 0.35878 0.0824986 -0.0535794 0.998378 0.0192374 191 187 191
-0.274809 0.285591 0.319752 0.459798 0.806392 0.37191 193 194 206
-0.332056 0.325973 0.252516 -0.0539867 0.925528 0.37481 41 40 44
-0.342601 0.308507 0.284818 -0.102881 0.857548 0.504012 174 170 178
-0.295622 0.186299 0.41886 0.226984 0.413196 0.881899 165 162 165
-0.306139 0.215864 0.397276 0.119229 0.756399 0.643153 177 173 176
-0.332132 0.277158 0.331427 0.0793753 0.78651 0.612455 175 171 176
0.158578 0.142829 0.28521 0.42525 0.399965 0.811905 182 185 198
0.0947363 0.265504 0.132038 0.254037 0.895162 0.366264 145 147 158
0.0899563 0.248754 0.187063 0.49715 0.791039 0.356508 162 164 177
0.0203781 0.314804 0.0319249 0.423879 0.898179 0.116625 184 183 195
-0.0436936 0.330616 -0.0551813 0.0111621 0.99974 0.0198398 179 177 187
0.0196289 0.277413 0.173322 0.277618 0.953482 0.117475 175 178 195
-0.139254 0.342621 -0.104745 0.18349 0.950419 -0.251068 155 155 167
0.0601081 0.152472 0.342148 0.461872 0.548533 0.696983 162 167 183
-0.135228 0.251347 0.322556 0.277767 0.763084 0.583566 65 111 70
-0.28727 0.354844 -0.0350133 -0.0958852 0.995116 -0.02344 161 156 163
-0.190071 0.274462 0.304423 0.221608 0.786801 0.57605 49 48 59
-0.174365 0.19198 0.400367 -0.0293343 0.597742 0.801152 127 127 137
-0.222635 0.238379 0.365851 0.241797 0.769083 0.591647 30 35 127
-0.281967 0.284063 0.330506 0.451314 0.872067 0.189248 186 186 196
-0.242841 0.176596 0.427634 0.0534461 0.360574 0.931198 167 166 173
-0.320144 0.270149 0.344949 -0.117451 0.780487 0.61404 177 176 181
0.276962 0.387018 0.149648 0.497378 0.325487 0.80416 153 149 147
0.14939 0.289007 -0.035293 0.0157695 0.999251 -0.0353413 194 188 191
-0.0418225 0.32101 -0.118503 0.169866 0.973638 -0.15223 163 164 176
0.0453359 0.263957 0.190241 0.25335 0.834608 0.489124 169 174 191
0.0684962 0.145136 0.34004 0.51119 0.198142 0.836316 150 158 176
-0.129025 0.348085 0.0579973 -0.125192 0.950998 0.282717 202 198 205
-0.127567 0.197648 0.387087 0.395287 0.587551 0.706068 112 123 148
-0.31902 0.355089 -0.0100073 -0.0163617 0.993371 -0.113789 81 93 99
-0.372559 0.35852 0.0710159 -0.376685 0.922381 0.0855629 187 181 185
-0.369984 0.357565 0.116187 -0.143942 0.967954 0.205783 99 94 101
-0.274177 0.204002 0.417064 -0.233192 0.684188 0.69102 179 178 183
0.0648021 0.304626 0.0214376 0.220209 0.96692 0.128738 136 135 143
0.107053 0.244284 0.171015 0.448234 0.809771 0.378627 149 150 162
-0.0902931 0.330901 -0.106601 0.117714 0.979028 -0.166275 165 163 174
-0.12147 0.343948 0.0919558 0.231929 0.972432 -0.0241706 202 199 206
-0.246094 0.167663 0.43399 0.0812242 0.358635 0.929938 163 163 168
-0.280257 0.254379 0.37099 0.280551 0.840336 0.463817 183 181 190
-0.102716 0.34176 -0.0587666 0.314787 0.928655 -0.196237 173 173 182
-0.278104 0.355838 0.00725702 0.00909295 0.999951 -0.0036341 86 96 55
-0.195507 0.26572 0.320828 0.151321 0.819445 0.552822 86 72 85
-0.0661456 0.256376 0.292484 0.397305 0.846379 0.354672 163 168 187
-0.133436 0.339678 0.159748 0.123728 0.967616 0.220022 175 173 185
