ply
format ascii 1.0
element vertex 393
property float x
property float y
property float z
property float nx
property float ny
property float nz
property uchar diffuse_red
property uchar diffuse_green
property uchar diffuse_blue
end_header
0.325986 0.063781 -0.209297 -0.0499992 0.371282 -0.927173 47 49 146
0.299564 0.258135 -0.119125 0.562355 0.472857 -0.678353 46 41 119
0.294135 0.280161 -0.113942 -0.589928 0.263211 -0.763352 41 36 42
0.339233 -0.132187 -0.279006 -0.216856 0.266598 -0.939095 197 172 166
0.299254 0.165986 -0.176901 -0.07721 0.854067 -0.5144 182 174 186
0.29855 0.111161 -0.190317 -0.233714 0.390937 -0.89025 199 178 172
0.271327 -0.0861831 -0.217665 0.0163222 0.339238 -0.940559 119 91 78
0.268718 -0.406915 -0.448336 0.0699455 0.834591 -0.546411 205 192 194
0.267105 -0.325899 -0.389452 0.642936 0.408504 -0.647887 215 200 198
0.241947 -0.163328 -0.331446 0.6599 0.390898 -0.641662 211 199 201
0.202033 0.00798751 -0.280394 0.662313 0.34391 -0.665633 209 196 193
0.236376 -0.295556 -0.405404 0.562147 0.241925 -0.790862 156 143 144
0.207442 -0.360655 -0.454961 0.518938 0.352021 -0.778964 194 174 168
0.188488 -0.192665 -0.396105 0.5959 0.246866 -0.764172 209 191 190
0.115376 0.17792 -0.252446 0.428668 0.475932 -0.76794 191 179 179
0.150614 -0.104079 -0.373469 0.292547 0.392049 -0.872189 154 135 134
0.125494 0.198372 -0.231303 0.527989 0.503018 -0.684252 208 196 195
0.124037 0.167047 -0.254896 0.606797 0.428373 -0.669548 203 192 192
0.0922172 0.249566 -0.218767 -0.209349 0.630895 -0.74709 171 165 171
0.0716142 0.30066 -0.151426 -0.086801 0.923048 -0.374762 171 161 163
0.081141 0.311488 -0.108931 -0.168394 0.972391 -0.161557 157 149 154
0.10818 -0.313764 -0.439588 -0.0906352 0.341223 -0.935603 168 140 129
0.0757962 -0.157367 -0.38601 -0.0337717 0.34827 -0.936786 170 145 135
0.0323956 0.24418 -0.218447 0.170321 0.497251 -0.850725 116 103 102
0.0459715 0.0773876 -0.293304 -0.0191483 0.311584 -0.950026 179 159 152
0.0320567 0.316209 -0.0879312 0.468814 0.861866 -0.193393 141 140 149
0.0172018 0.312915 -0.110512 -0.0498142 0.963323 -0.263682 176 172 181
0.0238605 0.0555082 -0.298656 -0.0717136 0.587959 -0.805705 148 137 136
0.00584673 0.265982 -0.210273 0.101242 0.602747 -0.791483 168 156 155
0.0640455 -0.425633 -0.474829 -0.0610648 0.54307 -0.837464 182 156 147
0.0200611 -0.251148 -0.412493 -0.120265 0.424705 -0.897308 164 139 132
0.0295226 -0.443682 -0.481852 0.0259272 0.371508 -0.928068 190 160 149
0.00869577 -0.179116 -0.385313 -0.0792353 0.202231 -0.976127 176 148 139
-0.0181274 -0.0186025 -0.327271 0.0263093 0.29155 -0.956194 170 148 141
-0.0241667 0.0248585 -0.308737 -0.0715866 0.338627 -0.938194 190 169 160
-0.0670067 0.307854 -0.190302 0.138132 0.882322 -0.44992 150 148 160
-0.0719979 0.326908 -0.120711 0.117104 0.962115 -0.246212 138 138 150
-0.0296667 -0.534657 -0.502802 -0.190918 0.322624 -0.927073 89 51 50
-0.0530302 -0.347966 -0.443566 -0.313048 0.259738 -0.91353 138 120 83
-0.0636986 -0.283654 -0.423055 -0.247435 0.309708 -0.918072 135 107 77
-0.0674385 -0.141733 -0.372288 -0.331154 0.222813 -0.916892 115 94 93
-0.092472 0.246126 -0.225629 0.324037 0.206694 -0.923188 187 164 157
-0.0418186 -0.568729 -0.513032 -0.259864 0.158044 -0.952624 177 145 129
-0.0933014 0.339619 -0.0655573 0.00900658 0.985822 -0.167553 151 151 163
-0.10664 0.277481 -0.222082 -0.362079 0.394848 -0.84439 161 137 129
-0.0757586 -0.340685 -0.43281 -0.0766017 0.320301 -0.944214 116 109 36
-0.0637222 -0.42508 -0.463981 -0.124358 0.321635 -0.938662 130 113 87
-0.0687074 -0.466676 -0.477143 -0.114927 0.305369 -0.945273 86 66 51
-0.102206 -0.0601404 -0.340203 -0.324207 0.241081 -0.914751 134 113 115
-0.108182 -0.0183475 -0.322043 -0.247392 0.490462 -0.835611 116 102 111
-0.0911582 -0.341462 -0.432119 -0.0828862 0.248028 -0.965201 111 104 30
-0.0940071 -0.293227 -0.413611 -0.288976 0.29608 -0.910401 128 112 31
-0.053794 -0.112341 -0.363255 0.00336524 0.307212 -0.951635 133 115 114
-0.121458 0.0843498 -0.286788 -0.087929 0.367089 -0.92602 130 113 113
-0.0964687 -0.514288 -0.484949 -0.258189 0.241115 -0.935523 110 36 20
-0.109609 -0.308994 -0.414205 -0.286541 0.176482 -0.941673 78 65 17
-0.140244 0.0725123 -0.292198 0.137476 0.386743 -0.911883 33 52 105
-0.144275 0.334994 -0.127143 -0.0501595 0.938634 -0.341247 125 124 137
-0.119 -0.245585 -0.39156 -0.223288 0.294086 -0.929331 112 50 49
-0.143147 0.213406 -0.243993 -0.389278 0.141203 -0.910233 139 120 116
-0.113363 -0.518532 -0.48401 -0.344485 0.354386 -0.869334 158 60 38
-0.135703 -0.0204712 -0.317865 -0.240232 0.362437 -0.900515 40 39 48
-0.149554 0.239931 -0.225788 -0.198004 0.370057 -0.907663 140 124 117
-0.150086 -0.103749 -0.340593 -0.239598 0.27814 -0.930178 29 45 95
-0.148229 -0.273062 -0.395605 -0.0589609 0.646973 -0.76023 158 134 127
-0.170093 -0.263317 -0.385457 -0.223477 0.444506 -0.867452 182 154 142
-0.165517 0.18943 -0.244288 -0.2119 0.326542 -0.921124 149 52 33
-0.162089 -0.0219936 -0.314408 -0.107462 0.27497 -0.955428 45 43 77
-0.164597 0.168595 -0.252256 -0.185658 0.285 -0.940375 163 41 28
-0.167802 0.247565 -0.218818 -0.143265 0.386853 -0.910945 58 80 48
-0.161683 0.0515756 -0.294246 -0.35733 -0.0122378 -0.933897 27 51 107
-0.13633 -0.604054 -0.500819 -0.0562527 0.286266 -0.956498 163 132 116
-0.142043 -0.411621 -0.443862 -0.17322 0.302033 -0.937428 53 53 29
-0.172774 0.21927 -0.231394 -0.124555 0.353795 -0.926993 41 47 27
-0.184911 0.312656 -0.161091 -0.0935277 0.828244 -0.552507 32 32 51
-0.182095 0.334527 -0.120853 -0.0532174 0.934419 -0.352179 49 74 56
-0.15654 -0.463723 -0.456778 -0.23783 0.407202 -0.88183 71 81 45
-0.169896 -0.285978 -0.396453 -0.303541 0.353316 -0.88489 38 22 20
-0.161047 -0.586597 -0.49244 -0.156765 0.268781 -0.950358 94 71 66
-0.15523 -0.49117 -0.465723 -0.179684 0.297878 -0.93754 119 49 28
-0.166324 -0.401721 -0.434985 -0.139453 0.297612 -0.944447 66 81 43
-0.196784 0.340642 -0.106246 -0.0213179 0.962792 -0.2694 46 106 68
-0.172752 -0.538148 -0.474684 -0.287589 0.256518 -0.922763 105 78 67
-0.198176 0.0603041 -0.283936 -0.240069 0.254521 -0.936795 104 40 44
-0.214749 0.165043 -0.245864 -0.172254 0.375373 -0.910727 170 146 136
-0.218991 0.130997 -0.25469 -0.269138 0.222226 -0.937112 39 35 70
-0.217795 0.337166 -0.110584 0.223926 0.887745 -0.4022 42 86 58
-0.187999 -0.545725 -0.467156 -0.498079 0.197244 -0.844401 175 141 124
-0.188787 -0.51169 -0.458497 -0.494033 0.437885 -0.751124 166 130 115
-0.19964 -0.352534 -0.41101 -0.194367 0.291427 -0.936638 58 75 40
-0.220072 0.00146278 -0.298258 -0.299048 0.0401985 -0.953391 24 29 99
-0.22937 0.286557 -0.181184 -0.100383 0.689111 -0.71767 46 32 41
-0.206721 -0.252289 -0.374853 -0.189439 0.259707 -0.946924 91 67 62
-0.214813 -0.238669 -0.36965 -0.208515 0.270535 -0.939858 126 101 93
-0.224061 -0.156315 -0.342332 -0.207871 0.266675 -0.941103 181 152 141
-0.204262 -0.578983 -0.469454 -0.442491 0.222756 -0.868666 59 40 36
-0.242299 0.352661 -0.0807714 0.109939 0.966777 -0.230772 122 126 142
-0.240016 0.115344 -0.255642 -0.359809 0.0830702 -0.929321 35 35 96
-0.238834 0.143052 -0.25026 -0.181358 0.410316 -0.893729 42 36 72
-0.242153 0.202957 -0.227001 -0.186065 0.319162 -0.929256 40 32 38
-0.23781 0.0698043 -0.272487 -0.25507 0.26779 -0.9291 40 31 52
-0.222955 -0.699823 -0.509214 -0.491843 0.362111 -0.791812 184 152 138
-0.256014 0.261464 -0.195999 -0.137319 0.562856 -0.815068 37 32 65
-0.250403 0.326039 -0.133896 -0.0108719 0.795194 -0.606257 33 50 36
-0.22971 -0.595694 -0.465329 -0.140376 0.189133 -0.971865 147 120 108
-0.23704 -0.182481 -0.346582 -0.256076 0.21885 -0.941557 67 36 35
-0.247824 -0.12106 -0.326021 -0.24835 0.252675 -0.935135 172 146 125
-0.265478 0.358133 -0.0674243 0.0152597 0.965244 -0.260904 113 113 127
-0.251873 -0.25957 -0.364882 -0.263827 0.23389 -0.935783 45 29 59
-0.239053 -0.579656 -0.459966 -0.198072 0.162229 -0.966669 120 88 82
-0.263884 0.0298998 -0.278151 -0.388409 0.317161 -0.865187 35 32 74
-0.251 -0.679168 -0.48131 -0.371338 0.44346 -0.815751 32 25 24
-0.262552 0.0491979 -0.272446 -0.562175 0.48021 -0.673318 74 40 52
-0.265929 0.176356 -0.228911 -0.346142 0.221131 -0.91175 115 103 114
-0.260663 -0.147213 -0.330593 -0.18515 0.291856 -0.938371 66 44 47
-0.250457 -0.65413 -0.467312 -0.28047 0.17973 -0.942886 124 104 99
-0.248474 -0.557962 -0.449228 -0.34102 0.353501 -0.871057 107 83 82
-0.259982 -0.510259 -0.416234 -0.361761 0.248837 -0.898448 67 50 50
-0.268841 -0.297782 -0.374489 -0.269067 0.277032 -0.922418 50 28 48
-0.279774 -0.0445295 -0.296174 -0.260985 0.255286 -0.930976 78 77 42
-0.28617 0.173077 -0.217455 -0.515451 0.175944 -0.838662 145 115 100
-0.268456 -0.60562 -0.454888 -0.390329 0.192058 -0.90042 139 110 95
-0.2947 0.310266 -0.147281 -0.12444 0.729373 -0.672704 157 154 136
-0.276884 -0.35193 -0.388698 -0.45428 0.202004 -0.867654 31 29 90
-0.285587 -0.0104717 -0.284579 -0.216943 0.252317 -0.943012 33 32 94
-0.290475 0.352796 -0.0708503 -0.336124 0.932682 -0.130869 136 128 135
-0.275857 -0.510443 -0.413488 -0.361742 0.426015 -0.82925 91 71 69
-0.278551 -0.559874 -0.437996 -0.386354 0.342949 -0.856222 149 124 116
-0.278706 -0.481181 -0.409226 -0.00196662 0.11174 -0.993735 67 49 43
-0.301283 0.286432 -0.169871 -0.0385171 0.616898 -0.7861 155 143 143
-0.305669 0.246819 -0.195308 -0.294754 0.450245 -0.842852 26 32 103
-0.305799 0.26349 -0.185695 -0.0967898 0.590862 -0.800946 24 34 102
-0.300839 -0.628371 -0.445129 -0.311934 0.271616 -0.910451 120 98 89
-0.267744 0.225353 -0.213075 -0.277727 0.00852476 -0.960622 24 31 103
-0.317502 -0.00249398 -0.270331 -0.432708 0.489276 -0.757214 84 76 100
-0.32148 0.233613 -0.198879 -0.294186 0.10793 -0.949634 68 60 108
-0.320543 0.35404 -0.0208645 -0.0210469 0.988764 -0.147997 36 47 138
-0.316883 -0.313962 -0.360546 -0.567981 0.188064 -0.801268 182 154 145
-0.315499 -0.153588 -0.316413 -0.389519 0.220617 -0.894205 32 29 88
-0.31835 -0.100567 -0.299404 -0.267111 0.248197 -0.931155 176 149 136
-0.32689 0.3408 -0.0896783 -0.145688 0.948887 -0.279978 24 37 145
-0.342538 0.13368 -0.216217 -0.148829 0.44221 -0.884478 126 113 115
-0.345919 0.350794 -0.0544754 0.0933947 0.955541 -0.279677 70 89 168
-0.34351 -0.189186 -0.311946 -0.591448 0.28259 -0.755203 184 156 147
-0.338814 -0.0258315 -0.274242 -0.266248 0.415208 -0.869894 75 72 81
-0.344764 0.355993 -0.0176497 0.118374 0.977266 -0.175895 151 162 191
-0.354426 0.112158 -0.223424 -0.154428 0.331538 -0.930718 109 69 67
-0.354917 0.166928 -0.182551 -0.164852 -0.0330945 -0.985763 60 52 57
-0.359746 0.00156705 -0.251721 -0.198587 0.588518 -0.783716 25 23 22
-0.358555 0.231335 -0.189896 -0.217506 -0.0945651 -0.971467 177 150 139
-0.367494 0.259283 -0.177446 -0.250729 0.447438 -0.858449 188 167 162
-0.369857 0.0842816 -0.227651 -0.270925 0.176273 -0.946323 125 102 91
-0.397806 0.0561047 -0.219439 -0.348502 0.0952271 -0.932459 52 41 41
-0.400236 0.110032 -0.205523 -0.471573 0.254086 -0.844428 139 117 109
-0.412053 0.0351744 -0.218585 -0.268472 0.291176 -0.918226 131 116 112
0.403047 -0.346197 -0.325005 -0.237163 0.0856823 -0.967684 60 69 159
0.313307 0.242013 -0.114231 0.680985 0.407175 -0.60866 35 49 171
0.304315 0.217007 -0.138881 0.574936 0.456937 -0.678718 24 39 164
0.29741 0.134774 -0.180322 -0.177498 0.383889 -0.906158 199 181 176
0.300782 0.143974 -0.162744 -0.257962 0.347167 -0.901627 192 177 181
0.353161 -0.477822 -0.297518 0.455315 0.276329 -0.846363 82 50 39
0.27428 -0.366822 -0.399761 0.682705 0.460876 -0.567016 207 194 194
0.232067 -0.0683722 -0.285346 0.116 0.604667 -0.787986 215 199 196
0.193551 0.100147 -0.242904 -0.0834607 0.30777 -0.947793 221 207 205
0.187473 0.149094 -0.20712 0.671781 0.402961 -0.621557 210 198 198
0.194589 0.20838 -0.110329 0.495885 0.559183 -0.664388 193 181 178
0.217935 -0.190487 -0.367385 0.597608 0.382673 -0.704574 180 167 167
0.18979 -0.0738047 -0.334177 0.614411 0.4061 -0.676448 162 155 161
0.214939 -0.34893 -0.446792 0.576185 0.372631 -0.727431 189 172 170
0.194832 -0.153959 -0.36969 0.596807 0.331119 -0.730878 159 150 154
0.169268 0.109092 -0.250335 0.546655 0.440908 -0.711877 150 142 146
0.181792 -0.100601 -0.356373 0.516746 0.388737 -0.762796 213 196 193
0.170544 -0.0441548 -0.334028 0.614847 0.401814 -0.678608 173 164 168
0.153598 0.0587359 -0.295644 0.485274 0.36714 -0.793548 213 198 195
0.143668 0.108411 -0.274193 0.609156 0.388318 -0.691474 166 157 160
0.132819 0.154837 -0.25542 0.575852 0.442033 -0.687752 190 180 182
0.127101 0.0951785 -0.290857 0.440914 0.393454 -0.806715 190 174 171
0.146858 -0.32112 -0.446279 -0.199675 0.265626 -0.943171 185 151 135
0.119894 -0.169996 -0.39619 -0.111451 0.204614 -0.972477 187 156 143
0.0817379 0.281425 -0.190497 0.0934669 0.843255 -0.529325 162 157 166
0.137045 -0.386437 -0.462953 -0.254114 0.298686 -0.919898 130 106 100
0.11519 -0.421175 -0.483379 -0.0688501 0.546258 -0.834783 193 164 153
0.099839 -0.190271 -0.399753 0.1447 0.324309 -0.934818 139 115 107
0.112306 -0.37253 -0.456012 -0.017928 0.164852 -0.986155 172 142 131
0.0803749 -0.0866351 -0.357925 -0.284698 0.389405 -0.875963 144 126 122
0.0797171 -0.109433 -0.369815 -0.0602617 0.360989 -0.930621 189 165 155
0.0516136 0.309044 -0.087458 0.226047 0.97003 -0.0891371 190 184 190
0.0849869 -0.207932 -0.41027 0.250419 0.276196 -0.927904 170 143 134
0.0494427 0.311941 -0.0984438 -0.219851 0.974789 -0.0381106 191 185 191
0.101405 -0.424241 -0.479112 -0.228603 0.520179 -0.822894 192 163 152
0.0470054 0.040548 -0.309234 -0.133916 0.405452 -0.904254 193 172 163
0.0853128 -0.275684 -0.426739 -0.0721308 0.293969 -0.953089 189 161 148
0.0658734 -0.0676905 -0.351131 -0.0167154 0.316726 -0.94837 168 144 137
0.0572031 -0.0521408 -0.349985 0.229071 0.283523 -0.931205 169 146 138
0.0599955 -0.0362953 -0.337627 -0.113345 0.357221 -0.927117 173 150 143
0.072536 -0.323432 -0.446678 -0.150954 0.622415 -0.767993 175 146 135
0.0235161 0.30961 -0.129555 0.00233481 0.979198 -0.202896 133 133 145
0.0462395 -0.122385 -0.373112 -0.13372 0.416247 -0.899365 191 164 153
0.0680321 -0.43143 -0.483443 -0.210635 0.701701 -0.680623 182 157 148
0.0156555 0.231722 -0.230411 0.136061 0.52489 -0.840226 171 157 154
0.0482152 -0.29191 -0.427855 -0.0639976 0.206565 -0.976338 189 160 146
0.0152707 0.276362 -0.200456 0.134135 0.702578 -0.698851 149 140 141
0.0567462 -0.382563 -0.454586 -0.14246 0.266031 -0.953379 173 144 133
0.048754 -0.337176 -0.441309 0.0367042 0.276967 -0.960178 175 147 136
0.0325252 -0.123698 -0.37169 -0.122091 0.399312 -0.908649 188 164 153
0.0685694 -0.639817 -0.528282 0.392395 0.210362 -0.895418 189 156 143
0.0319481 -0.238736 -0.407376 0.0840314 0.44342 -0.892366 173 146 137
0.0434524 -0.439579 -0.482184 -0.046639 0.461592 -0.885865 193 164 152
0.0189462 -0.130634 -0.370487 -0.0797567 0.510005 -0.856465 190 164 153
0.00585476 -0.0868967 -0.352632 -0.190315 0.147219 -0.970621 170 144 136
-0.0299426 0.265093 -0.216857 0.339997 0.65451 -0.675291 136 123 125
-0.0107213 0.0274361 -0.31273 -0.0419191 0.39934 -0.915844 193 170 161
-0.0259568 0.270286 -0.209018 -0.00314885 0.678386 -0.734699 142 134 140
-0.013198 0.0387323 -0.311115 -0.066917 0.761459 -0.64475 169 152 147
0.00882416 -0.350829 -0.441593 0.00032229 0.150052 -0.988678 179 153 144
-0.0116555 -0.109759 -0.363048 -0.000941502 0.489764 -0.871855 112 95 94
0.0063414 -0.391631 -0.463708 0.113369 0.386002 -0.915505 157 132 126
-0.00979037 -0.136618 -0.37298 -0.0587805 0.180742 -0.981773 190 163 151
-0.0250588 0.0693737 -0.285438 0.0290311 0.5651 -0.824511 169 153 150
0.0169988 -0.534663 -0.509156 0.0825541 0.291387 -0.953037 144 120 116
0.00148929 -0.363595 -0.445737 -0.390523 0.102203 -0.914903 157 132 126
0.0264201 -0.690377 -0.524993 0.22585 0.222115 -0.948502 134 103 95
-0.0551808 0.197937 -0.236474 0.169996 0.456126 -0.873527 169 153 149
-0.0352727 -0.25662 -0.413641 0.0571968 0.171464 -0.983528 127 106 104
-0.014158 -0.615005 -0.525302 -0.10361 0.22225 -0.969469 168 135 116
-0.0711483 0.056834 -0.303128 0.217549 0.43902 -0.871742 171 151 147
-0.0373744 -0.547286 -0.507229 -0.210739 0.322772 -0.922717 102 57 50
-0.0834453 0.112815 -0.283077 0.264662 0.444296 -0.855895 154 139 139
-0.0499321 -0.451481 -0.474761 -0.109364 0.323766 -0.939796 94 71 57
-0.0823386 0.0129699 -0.321155 -0.0676962 0.302853 -0.95063 127 111 111
-0.0892115 0.154787 -0.264492 0.232875 0.44563 -0.864397 156 142 141
-0.0998182 0.332391 -0.100689 0.125801 0.973868 -0.189091 154 153 164
-0.0565064 -0.492717 -0.487289 -0.269898 0.233322 -0.934192 64 37 56
-0.065415 -0.619445 -0.519749 -0.169589 0.256011 -0.951681 127 109 80
-0.0941496 -0.212162 -0.386583 -0.189317 0.362222 -0.912663 76 47 66
-0.103468 0.0413559 -0.303175 0.00573713 0.353442 -0.935439 128 111 110
-0.107353 0.347786 -0.0300968 0.147124 0.977586 -0.150601 203 199 205
-0.104452 -0.134788 -0.364006 -0.357705 0.283558 -0.889743 186 156 143
-0.124696 0.343766 -0.0774559 0.204038 0.970049 -0.131809 184 182 192
-0.119466 -0.114355 -0.350235 -0.200295 0.346865 -0.916278 184 157 146
-0.151543 0.288833 -0.195378 -0.253274 0.650767 -0.71579 131 120 123
-0.14906 0.303294 -0.183213 -0.318337 0.681923 -0.658515 135 124 128
-0.163909 0.342815 -0.0935649 -0.0708316 0.966597 -0.246319 153 144 149
-0.132865 -0.29568 -0.407462 -0.224252 0.280487 -0.933295 162 137 90
-0.128859 -0.520782 -0.478722 -0.1819 0.363733 -0.91357 163 66 43
-0.137876 -0.312042 -0.4104 -0.138633 0.267513 -0.953529 160 135 89
-0.14471 -0.523607 -0.475691 -0.211321 0.251886 -0.944403 153 103 86
-0.189517 0.146409 -0.257774 -0.168856 0.389958 -0.905218 131 101 103
-0.199571 0.348611 -0.0763553 -0.0234487 0.996185 -0.0840539 49 107 75
-0.187363 0.0240878 -0.296987 -0.159818 0.211004 -0.964331 34 33 92
-0.200617 0.282608 -0.189512 -0.136936 0.597852 -0.789824 97 79 87
-0.203563 0.317448 -0.151331 -0.0165243 0.775765 -0.630806 140 147 128
-0.197492 -0.10407 -0.333139 -0.239421 0.286792 -0.927592 183 154 142
-0.175493 -0.674316 -0.513223 -0.299697 0.203653 -0.932044 39 34 91
-0.218122 0.288066 -0.183201 -0.141151 0.601425 -0.786361 36 38 62
-0.22478 -0.131374 -0.334732 -0.307482 0.157495 -0.938429 154 126 113
-0.234275 0.054099 -0.279096 -0.20101 0.235491 -0.950862 104 36 37
-0.2219 -0.521767 -0.437591 -0.252562 0.42652 -0.8685 54 37 35
-0.250784 0.356661 -0.0735475 0.129676 0.971274 -0.199528 114 118 138
-0.244904 -0.24413 -0.363579 -0.228439 0.224087 -0.947418 45 27 49
-0.257531 0.291282 -0.171941 -0.0946652 0.674443 -0.732233 160 42 29
-0.25897 0.104758 -0.249445 -0.469253 0.139332 -0.872003 155 130 122
-0.277757 0.354499 -0.082079 -0.240795 0.956711 -0.163467 132 128 137
-0.280642 0.342726 -0.107793 -0.184131 0.751175 -0.633901 162 154 151
-0.273751 -0.40284 -0.405675 -0.374911 0.175248 -0.910346 34 30 86
-0.274774 -0.532141 -0.424965 -0.376418 0.382693 -0.843716 64 51 55
-0.285721 -0.0839572 -0.304504 -0.234604 0.209904 -0.949159 61 58 39
-0.292059 -0.189705 -0.33394 -0.280044 0.254165 -0.92573 32 30 89
-0.310887 0.34778 -0.0663246 0.0394141 0.9873 -0.153906 169 161 170
-0.313743 0.0157594 -0.256204 -0.329071 0.564576 -0.756945 34 29 28
-0.310182 -0.646197 -0.448179 -0.238318 0.389262 -0.889764 91 75 73
-0.324611 0.163552 -0.201919 -0.139469 0.432005 -0.891022 71 60 62
-0.338002 0.343262 -0.081341 -0.0764692 0.937161 -0.340414 23 39 151
-0.332344 -0.0393367 -0.278916 -0.191207 0.1775 -0.965367 58 75 46
-0.347683 0.347989 -0.0651158 0.0564605 0.958312 -0.280088 70 89 170
-0.342978 0.286771 -0.162168 -0.210974 0.577617 -0.788574 22 33 122
-0.358793 0.0178605 -0.237739 -0.207867 0.560217 -0.80184 134 122 122
-0.399767 0.0845989 -0.213715 -0.527583 0.169584 -0.832405 59 44 42
-0.40527 0.0258371 -0.224203 -0.0804411 0.506405 -0.858535 101 92 92
-0.44266 0.0706084 -0.192035 -0.469798 0.304573 -0.828568 100 90 93
0.308151 0.229323 -0.126828 0.599311 0.364455 -0.712741 25 42 170
0.281646 0.345914 -0.0755263 0.420686 0.567618 -0.707695 58 114 77
0.381994 -0.430912 -0.3352 -0.687731 0.113889 -0.716977 181 147 131
0.331862 -0.154602 -0.259695 -0.671723 0.0453523 -0.739413 183 152 137
0.288512 0.164341 -0.148684 -0.807568 -0.0656764 -0.586107 192 169 160
0.238166 -0.130837 -0.312061 0.717768 0.486554 -0.498071 210 198 198
0.20989 0.0348319 -0.25645 0.660024 0.336366 -0.671733 224 209 208
0.206254 -0.019877 -0.291162 0.578236 0.366767 -0.728784 205 190 188
0.168199 0.240922 -0.154106 0.684781 0.592934 -0.423681 202 192 191
0.190313 -0.608124 -0.504506 -0.164014 0.292329 -0.942148 188 153 139
0.152035 -0.438604 -0.486084 0.153378 0.346564 -0.925401 192 161 149
0.0881541 0.313286 -0.097817 -0.270694 0.956496 -0.108815 159 154 160
0.106871 -0.103426 -0.375302 -0.3971 0.254612 -0.88175 190 161 150
0.124362 -0.430191 -0.490211 -0.144943 0.589947 -0.794326 192 162 150
0.0368985 0.299126 -0.166398 -0.0350047 0.952874 -0.301339 207 199 202
0.0957775 -0.340327 -0.447254 0.224767 0.156285 -0.961798 172 143 133
0.070153 -0.197456 -0.396847 -0.243261 0.786203 -0.568076 167 141 132
0.0818751 -0.431162 -0.485248 -0.183863 0.711341 -0.678372 182 156 146
0.0686991 -0.224633 -0.40517 -0.151572 0.166657 -0.974296 170 143 133
0.0645155 -0.609432 -0.527316 0.294808 0.259944 -0.919521 185 154 143
0.0525678 -0.458178 -0.485326 0.224113 0.181803 -0.957456 193 162 148
0.00472488 -0.0304308 -0.333261 -0.0915427 0.24731 -0.964603 174 153 145
-0.00325589 0.0173026 -0.317165 -0.0884114 0.278806 -0.956269 191 166 156
-0.00130862 0.0395036 -0.312508 -0.0893931 0.76284 -0.640378 176 160 155
0.00429485 -0.292391 -0.428001 0.00212217 0.321292 -0.946977 186 159 148
-0.0392515 0.123083 -0.264379 0.233322 0.422652 -0.875744 174 153 147
-0.0462502 0.190811 -0.230077 0.39144 0.174771 -0.903454 176 157 151
-0.0205822 -0.670239 -0.535619 0.106509 0.199398 -0.974113 97 28 32
-0.0595404 -0.14781 -0.373668 0.0303898 0.339865 -0.939984 120 100 99
-0.052425 -0.133219 -0.373132 0.0891815 0.0422852 -0.995118 128 109 107
-0.0562456 -0.414046 -0.45923 -0.199668 0.249894 -0.947463 145 119 101
-0.0877889 0.333326 -0.0952151 0.0888132 0.972346 -0.215997 165 163 172
-0.0999312 0.258121 -0.224942 0.241359 0.0589132 -0.968646 175 148 137
-0.108653 0.323719 -0.155168 0.106712 0.974871 -0.19555 201 195 201
-0.0818561 -0.375912 -0.444456 -0.0865424 0.256116 -0.962764 64 78 31
-0.118412 0.353315 0.00579592 0.0399003 0.986549 -0.158519 203 198 203
-0.133664 0.347944 -0.0706253 0.210826 0.9663 -0.147705 174 172 184
-0.157191 -0.236631 -0.38285 -0.377076 0.0828411 -0.92247 187 154 128
-0.178801 0.306715 -0.169121 -0.0974735 0.757414 -0.645619 31 48 101
-0.18069 -0.0572122 -0.323426 -0.156274 0.218671 -0.963203 125 118 129
-0.215792 0.184665 -0.237289 -0.181888 0.380989 -0.906512 173 154 133
-0.204175 -0.476914 -0.442825 -0.511533 0.442452 -0.736594 170 139 118
-0.197021 -0.635314 -0.484837 -0.41426 0.270314 -0.869091 134 104 89
-0.236973 0.352944 -0.069182 0.185381 0.941876 -0.280184 128 131 148
-0.254885 0.20269 -0.225651 -0.262241 0.247942 -0.932606 32 32 86
-0.265679 -0.042378 -0.29994 -0.112487 0.355518 -0.927876 131 119 78
-0.264146 -0.559516 -0.444054 -0.408075 0.374913 -0.832415 119 96 89
-0.284933 -0.304819 -0.37113 -0.040867 0.236966 -0.970658 37 32 86
-0.30004 0.0377278 -0.250187 -0.471243 0.479815 -0.740072 108 96 91
-0.30794 0.304218 -0.151318 0.0456066 0.765806 -0.641452 170 161 153
-0.302107 0.116336 -0.226869 -0.248259 0.242316 -0.937897 65 55 59
-0.310222 0.0659688 -0.238771 -0.193718 0.0522182 -0.979667 119 100 97
-0.30968 -0.436842 -0.392006 -0.253934 0.367762 -0.894578 179 147 132
-0.336282 0.161364 -0.2001 -0.198932 0.596175 -0.777819 72 63 66
-0.348436 0.293657 -0.154608 -0.170726 0.661727 -0.730047 25 42 126
-0.366824 -0.0355887 -0.264129 -0.219648 0.189063 -0.957085 182 157 147
0.329695 -0.0564129 -0.243681 -0.17936 0.246508 -0.952399 188 166 171
0.291131 0.189849 -0.150299 -0.252239 0.158812 -0.954544 194 177 180
0.395334 -0.504376 -0.329452 -0.921754 0.147448 -0.358649 178 143 126
0.313769 -0.0331398 -0.236618 -0.124914 0.449764 -0.884369 184 159 150
0.258765 0.312349 -0.0949614 -0.421332 0.304793 -0.854155 185 163 153
0.290371 -0.278395 -0.290023 0.263027 0.32182 -0.909532 192 170 161
0.251228 -0.442773 -0.465969 0.495319 0.464415 -0.734151 200 185 184
0.187351 0.117877 -0.230086 0.575709 0.446751 -0.684816 211 200 200
0.131629 0.222371 -0.216433 0.517338 0.403471 -0.7547 215 203 204
0.0752592 -0.596735 -0.515089 0.480652 0.182086 -0.857799 192 160 147
0.00427589 0.0462366 -0.305619 -0.105538 0.760462 -0.640749 122 109 109
-0.0193373 -0.37591 -0.458141 -0.0884718 0.275165 -0.957317 141 115 109
-0.0759407 -0.482024 -0.479762 -0.220836 0.221202 -0.949896 67 45 38
-0.100739 -0.225931 -0.389311 -0.288783 0.230455 -0.929245 59 49 94
-0.116095 -0.00749902 -0.317914 -0.284387 0.35689 -0.889805 69 69 92
-0.125697 0.2052 -0.246954 -0.209274 0.309514 -0.92758 124 110 112
-0.124772 0.35157 0.0219881 0.115511 0.959412 -0.257263 205 197 201
-0.146567 0.346976 -0.0863057 -0.0617606 0.966012 -0.251008 153 150 160
-0.145326 -0.551812 -0.486575 -0.275215 0.360455 -0.891251 163 123 104
-0.178492 0.347763 -0.068678 0.25532 0.963349 -0.0822856 119 92 98
-0.168385 -0.130899 -0.347867 -0.167871 0.247891 -0.954133 28 40 89
-0.24504 0.347825 -0.0918231 -0.0831173 0.927001 -0.365733 138 135 146
-0.29944 -0.580443 -0.434961 -0.403109 0.244916 -0.881771 73 52 49
-0.328071 0.260197 -0.181008 -0.118999 0.390022 -0.913084 27 34 110
-0.349187 -0.106166 -0.290008 -0.38317 0.322104 -0.865696 188 161 152
-0.354313 0.191794 -0.181861 -0.0965682 -0.123515 -0.987633 141 115 102
-0.403981 0.33914 -0.0696662 -0.46736 0.877847 -0.104687 193 180 180
0.0377432 0.253741 -0.213764 0.00268236 0.503322 -0.864094 176 162 159
-0.0191785 0.331015 -0.0603226 -0.153959 0.981342 -0.115172 183 182 193
-0.115701 0.22429 -0.237761 0.157212 0.382968 -0.910286 147 132 132
-0.136793 -0.676843 -0.518136 0.0528296 0.211364 -0.975979 31 25 85
-0.178064 -0.22316 -0.372785 -0.335624 0.364275 -0.868712 174 146 137
-0.225726 -0.107136 -0.327526 -0.163833 0.245366 -0.955487 77 55 47
-0.250199 0.236236 -0.210334 -0.199975 0.387116 -0.900084 38 36 91
-0.231778 -0.376073 -0.408948 0.151905 0.134683 -0.979176 56 30 32
-0.260077 0.350454 -0.0893049 -0.375252 0.670687 -0.639817 139 134 141
-0.260288 -0.237467 -0.357464 -0.244369 0.203373 -0.948116 34 30 86
-0.39294 0.0990662 -0.213641 -0.503216 0.253013 -0.826291 120 99 88
-0.407838 0.259026 -0.154531 -0.216262 0.675496 -0.704938 186 167 160
0.258179 0.202583 -0.147075 -0.855464 0.345388 -0.38586 180 158 146
0.323395 -0.333866 -0.304036 -0.074147 0.288759 -0.954526 102 67 49
0.172055 -0.0859831 -0.355867 0.540181 0.400033 -0.74039 210 193 189
0.145803 -0.0769238 -0.363377 0.375726 0.41106 -0.830577 166 146 145
0.130673 -0.300874 -0.434832 0.0105416 0.402089 -0.91554 143 113 102
0.077489 -0.0204888 -0.334857 -0.214413 0.277648 -0.93645 129 106 99
0.0517562 -0.0235669 -0.33581 0.0189007 0.33308 -0.942709 171 148 142
-0.0456918 0.0530976 -0.299881 -0.0600227 0.411507 -0.909429 116 100 99
-0.0796823 -0.653472 -0.527168 -0.267673 0.178952 -0.946745 50 28 48
-0.205636 -0.515271 -0.448313 -0.668299 0.271724 -0.69249 162 128 111
-0.261294 -0.00568718 -0.289774 -0.255018 0.23944 -0.936822 33 33 99
0.256885 0.0381015 -0.172606 0.247733 0.360512 -0.899256 102 72 55
0.236833 -0.176641 -0.344398 0.631701 0.361183 -0.685931 212 198 198
-0.122198 -0.3702 -0.432937 -0.22153 0.316575 -0.922336 68 79 34
-0.187923 0.0478754 -0.290081 -0.144133 0.387844 -0.910386 56 40 78
-0.251843 0.298941 -0.165845 -0.123963 0.685661 -0.717288 157 44 29
-0.327987 -0.20952 -0.328123 -0.108126 0.259185 -0.959756 171 147 142
0.280826 -0.107481 -0.22706 0.151453 0.345027 -0.926292 100 70 53
