ply
format ascii 1.0
element vertex 424
property float x
property float y
property float z
property float nx
property float ny
property float nz
property uchar diffuse_red
property uchar diffuse_green
property uchar diffuse_blue
end_header
0.352997 -0.082328 -0.257124 0.544624 0.356956 -0.758925 36 45 149
0.352787 -0.054242 -0.242019 0.6226 0.394312 -0.675935 40 53 163
0.383062 -0.348444 -0.342449 -0.548345 0.381717 -0.74405 179 162 173
0.339233 -0.132187 -0.279006 -0.216856 0.266598 -0.939095 197 172 166
0.27164 0.389008 -0.0502922 0.501273 0.658286 -0.561591 49 56 119
0.291131 0.189849 -0.150299 -0.252239 0.158812 -0.954544 194 177 180
0.253363 0.400489 -0.0389876 -0.169511 0.695241 -0.698503 183 167 165
0.272406 -0.0304085 -0.197635 0.22341 0.32671 -0.91834 112 82 63
0.267233 -0.37824 -0.415457 0.594289 0.374607 -0.711682 207 191 190
0.211378 -0.157176 -0.356908 0.589539 0.312058 -0.745026 183 169 170
0.208651 -0.227073 -0.393856 0.606488 0.363604 -0.707082 135 126 131
0.183953 0.0285383 -0.287701 0.648138 0.351607 -0.675493 119 111 117
0.148429 0.158967 -0.23944 0.616135 0.409616 -0.672749 175 168 171
0.150614 -0.104079 -0.373469 0.292547 0.392049 -0.872189 154 135 134
0.10667 0.155686 -0.269593 0.402064 0.44618 -0.799543 160 147 149
0.0836694 0.254012 -0.219957 0.240564 0.665706 -0.706374 157 152 157
0.10818 -0.313764 -0.439588 -0.0906352 0.341223 -0.935603 168 140 129
0.0833026 -0.166942 -0.389366 0.0132796 0.332463 -0.943022 173 147 138
0.0797171 -0.109433 -0.369815 -0.0602617 0.360989 -0.930621 189 165 155
0.0525432 0.183756 -0.248089 0.22644 0.534065 -0.814555 161 144 138
0.0459715 0.0773876 -0.293304 -0.0191483 0.311584 -0.950026 179 159 152
0.0320972 0.262319 -0.208252 0.103482 0.551636 -0.827641 159 149 148
0.0291584 0.00905493 -0.32384 -0.143273 0.625809 -0.766704 111 91 87
0.0344815 0.315957 -0.0751015 0.238615 0.970709 -0.0280447 129 130 141
0.0518173 0.304045 0.0525662 0.272783 0.953536 0.127893 171 173 185
0.0132917 0.257103 -0.212847 8.9998e-05 0.455287 -0.890345 178 161 157
0.0146618 0.311421 -0.122485 0.129411 0.974202 -0.184889 165 166 177
0.0200611 -0.251148 -0.412493 -0.120265 0.424705 -0.897308 164 139 132
0.00869577 -0.179116 -0.385313 -0.0792353 0.202231 -0.976127 176 148 139
-0.00602761 -0.0960204 -0.355643 0.00799692 0.442252 -0.896855 164 143 137
0.0134507 0.309618 0.0768948 0.248557 0.968342 -0.0230894 154 156 170
-0.0175753 0.263431 -0.215739 0.0413943 0.634237 -0.772029 138 127 130
-0.0181274 -0.0186025 -0.327271 0.0263093 0.29155 -0.956194 170 148 141
-0.0241667 0.0248585 -0.308737 -0.0715866 0.338627 -0.938194 190 169 160
-0.0296667 -0.534657 -0.502802 -0.190918 0.322624 -0.927073 89 51 50
-0.0428061 0.273709 -0.21695 0.469753 0.539698 -0.698611 135 124 129
-0.0474715 0.0785281 -0.286352 0.326882 0.402366 -0.855132 148 130 127
-0.0565064 -0.492717 -0.487289 -0.269898 0.233322 -0.934192 64 37 56
-0.0631091 0.100998 -0.28172 0.311647 0.389369 -0.866757 133 116 110
-0.0721471 -0.416093 -0.457447 -0.112364 0.300705 -0.947075 113 108 70
-0.0674385 -0.141733 -0.372288 -0.331154 0.222813 -0.916892 115 94 93
-0.0687074 -0.466676 -0.477143 -0.114927 0.305369 -0.945273 86 66 51
-0.0691142 -0.324869 -0.432216 -0.212266 0.300154 -0.929974 79 84 31
-0.0524685 0.330848 0.0793861 0.380417 0.920298 0.0912916 170 172 186
-0.0839069 -0.328875 -0.427803 -0.115244 0.286195 -0.951215 125 113 36
-0.0908378 -0.605852 -0.513831 -0.131591 0.367877 -0.920517 143 114 106
-0.086729 -0.281101 -0.409258 -0.0832738 0.228965 -0.969866 95 92 28
-0.102206 -0.0601404 -0.340203 -0.324207 0.241081 -0.914751 134 113 115
-0.0902931 0.330901 -0.106601 0.117714 0.979028 -0.166275 165 163 174
-0.10664 0.277481 -0.222082 -0.362079 0.394848 -0.84439 161 137 129
-0.119 -0.245585 -0.39156 -0.223288 0.294086 -0.929331 112 50 49
-0.114154 0.329468 -0.139521 0.255269 0.946126 -0.199209 192 189 197
-0.126794 -0.490461 -0.472114 -0.214523 0.14074 -0.966526 164 47 23
-0.129002 -0.0102968 -0.312945 -0.183342 0.22375 -0.957247 43 53 77
-0.13633 -0.604054 -0.500819 -0.0562527 0.286266 -0.956498 163 132 116
-0.129795 0.114746 -0.274348 0.199719 0.348676 -0.915717 124 107 108
-0.142043 -0.411621 -0.443862 -0.17322 0.302033 -0.937428 53 53 29
-0.15489 -0.565128 -0.488901 -0.373947 0.2665 -0.888337 167 135 122
-0.150086 -0.103749 -0.340593 -0.239598 0.27814 -0.930178 29 45 95
-0.142085 0.094506 -0.282501 -0.0182563 0.350707 -0.936307 32 36 87
-0.161047 -0.586597 -0.49244 -0.156765 0.268781 -0.950358 94 71 66
-0.152529 -0.0546575 -0.327778 -0.183538 0.226758 -0.956501 126 119 130
-0.147105 0.18216 -0.251488 -0.297423 0.321922 -0.898836 145 97 76
-0.149733 0.240351 -0.225653 -0.205659 0.375154 -0.903861 140 124 116
-0.169896 -0.285978 -0.396453 -0.303541 0.353316 -0.88489 38 22 20
-0.170818 -0.323618 -0.407923 -0.0823094 0.246237 -0.965708 55 27 22
-0.182172 -0.0350262 -0.316216 -0.17924 0.356849 -0.916806 110 102 108
-0.173932 0.023909 -0.297109 -0.0878631 0.338613 -0.936814 31 44 98
-0.167802 0.247565 -0.218818 -0.143265 0.386853 -0.910945 58 80 48
-0.167316 0.328625 -0.136327 0.0249533 0.930638 -0.365091 109 105 138
-0.190128 -0.275706 -0.386328 -0.265126 0.187284 -0.945851 184 154 142
-0.182478 0.135306 -0.260973 -0.15284 0.367243 -0.917482 50 42 98
-0.204262 -0.578983 -0.469454 -0.442491 0.222756 -0.868666 59 40 36
-0.204175 -0.476914 -0.442825 -0.511533 0.442452 -0.736594 170 139 118
-0.173918 0.286122 -0.191825 -0.160077 0.678523 -0.716926 37 37 100
-0.190982 -0.00229994 -0.303995 -0.155732 0.280406 -0.947164 90 76 86
-0.215006 -0.684958 -0.502438 -0.266391 0.542896 -0.796429 184 154 141
-0.111422 -0.435312 -0.457067 -0.157256 0.294638 -0.942581 82 84 44
-0.198176 0.0603041 -0.283936 -0.240069 0.254521 -0.936795 104 40 44
-0.185415 0.330864 -0.129023 -0.0388484 0.928515 -0.369257 35 42 33
-0.189132 0.338391 -0.108622 -0.0749193 0.954494 -0.288668 48 103 68
-0.193572 0.344051 -0.0972549 0.0669897 0.977467 -0.200176 48 109 73
-0.214749 0.165043 -0.245864 -0.172254 0.375373 -0.910727 170 146 136
-0.210977 0.216313 -0.226942 -0.151435 0.294548 -0.943562 59 89 47
-0.221156 0.0551226 -0.281319 -0.208305 0.350712 -0.913022 115 44 37
-0.214243 0.119969 -0.25901 -0.171459 0.196561 -0.965384 19 29 103
-0.245437 -0.531188 -0.435909 -0.218279 0.531737 -0.818298 143 124 118
-0.251489 -0.461571 -0.409288 -0.147586 0.115686 -0.98226 46 29 24
-0.217678 0.302254 -0.167301 -0.120364 0.768007 -0.629029 88 82 80
-0.204785 0.355236 -0.00868054 0.00668116 0.998356 -0.0569305 34 43 146
-0.247824 -0.12106 -0.326021 -0.24835 0.252675 -0.935135 172 146 125
-0.223635 0.308744 -0.159545 -0.0953565 0.744433 -0.660852 50 40 40
-0.217795 0.337166 -0.110584 0.223926 0.887745 -0.4022 42 86 58
-0.216205 0.351443 -0.0622167 0.195982 0.978614 -0.0625063 137 157 135
-0.213882 0.356555 0.0141332 0.0617131 0.998061 -0.00814349 26 32 90
-0.238834 0.143052 -0.25026 -0.181358 0.410316 -0.893729 42 36 72
-0.22937 0.286557 -0.181184 -0.100383 0.689111 -0.71767 46 32 41
-0.275857 -0.510443 -0.413488 -0.361742 0.426015 -0.82925 91 71 69
-0.268841 -0.297782 -0.374489 -0.269067 0.277032 -0.922418 50 28 48
-0.242153 0.202957 -0.227001 -0.186065 0.319162 -0.929256 40 32 38
-0.260663 -0.147213 -0.330593 -0.18515 0.291856 -0.938371 66 44 47
-0.263421 -0.0943445 -0.313744 -0.255563 0.244088 -0.935473 118 110 62
-0.234575 0.347045 -0.0982254 0.191854 0.90978 -0.368094 150 150 157
-0.256014 0.261464 -0.195999 -0.137319 0.562856 -0.815068 37 32 65
-0.279774 -0.0445295 -0.296174 -0.260985 0.255286 -0.930976 78 77 42
-0.265929 0.176356 -0.228911 -0.346142 0.221131 -0.91175 115 103 114
-0.267686 0.146111 -0.233126 -0.634045 0.129027 -0.762456 144 116 102
-0.257237 0.277046 -0.185423 -0.102978 0.626029 -0.77297 115 75 69
-0.257531 0.291282 -0.171941 -0.0946652 0.674443 -0.732233 160 42 29
-0.285587 -0.0104717 -0.284579 -0.216943 0.252317 -0.943012 33 32 94
-0.263176 0.312155 -0.150309 -0.12915 0.750927 -0.647633 59 85 52
-0.259894 0.355416 0.0035062 0.01788 0.999807 0.00822994 27 37 113
-0.293507 -0.0720991 -0.299393 -0.207852 0.271705 -0.939667 53 52 35
-0.293882 -0.0468382 -0.292313 -0.279081 0.250537 -0.927009 50 51 31
-0.302587 -0.279124 -0.361538 -0.247664 0.174735 -0.952958 124 110 124
-0.279141 0.274118 -0.183428 -0.169372 0.604392 -0.778475 55 44 76
-0.315499 -0.153588 -0.316413 -0.389519 0.220617 -0.894205 32 29 88
-0.272023 0.355959 0.03109 -0.0281728 0.999298 -0.0247069 121 138 56
-0.295818 0.124575 -0.219554 -0.0202013 0.101923 -0.994588 64 51 53
-0.29203 0.350766 0.140153 -0.00195275 0.993821 0.11097 123 138 69
-0.327093 0.0896746 -0.232341 0.00845236 0.303157 -0.952903 139 123 120
-0.300194 0.349528 -0.0629625 -0.0564995 0.982187 -0.179213 140 131 135
-0.330698 0.0511279 -0.237283 -0.0888525 0.0812306 -0.992727 71 58 59
-0.29816 0.354597 0.0660933 -0.0106728 0.997526 0.0694929 118 137 55
-0.308628 0.355677 0.062718 -0.0209986 0.999185 0.0344506 115 132 53
-0.323981 0.280981 -0.171497 -0.150609 0.621997 -0.768399 38 34 67
-0.310703 0.33351 -0.111848 -0.174946 0.862365 -0.475101 39 45 41
-0.318443 0.321778 -0.128908 -0.14498 0.821328 -0.551725 34 31 45
-0.349187 -0.106166 -0.290008 -0.38317 0.322104 -0.865696 188 161 152
-0.316993 0.355791 0.000533822 0.03639 0.998728 -0.034904 113 127 64
-0.313305 0.356155 0.0411846 0.0341448 0.999102 0.025068 86 98 45
-0.330307 0.287621 -0.164424 -0.198094 0.622788 -0.756897 29 29 62
-0.320543 0.35404 -0.0208645 -0.0210469 0.988764 -0.147997 36 47 138
-0.32689 0.3408 -0.0896783 -0.145688 0.948887 -0.279978 24 37 145
-0.354426 0.112158 -0.223424 -0.154428 0.331538 -0.930718 109 69 67
-0.353495 0.151482 -0.202766 -0.180675 0.456593 -0.871136 56 53 64
-0.334176 0.358566 0.0856954 0.108563 0.993828 0.0228341 191 189 194
-0.354917 0.166928 -0.182551 -0.164852 -0.0330945 -0.985763 60 52 57
-0.355966 0.240536 -0.187263 -0.273995 0.22878 -0.934124 179 156 149
-0.367494 0.259283 -0.177446 -0.250729 0.447438 -0.858449 188 167 162
-0.397806 0.0561047 -0.219439 -0.348502 0.0952271 -0.932459 52 41 41
-0.400236 0.110032 -0.205523 -0.471573 0.254086 -0.844428 139 117 109
-0.464909 0.0619458 -0.186116 0.182426 -0.0975676 -0.978367 24 21 20
0.3438 0.00235476 -0.222061 0.552214 0.349127 -0.75708 29 48 164
0.269009 0.417359 -0.0224404 0.380086 0.775023 -0.50485 39 44 168
0.29855 0.111161 -0.190317 -0.233714 0.390937 -0.89025 199 178 172
0.270008 0.434785 0.0169235 0.670438 0.670867 -0.316939 34 46 178
0.255981 -0.201685 -0.323748 0.715137 0.50228 -0.486102 214 196 194
0.193551 0.100147 -0.242904 -0.0834607 0.30777 -0.947793 221 207 205
0.182124 0.142071 -0.219863 0.585562 0.413353 -0.697321 211 199 200
0.194501 -0.315975 -0.441759 0.366999 0.360842 -0.857382 182 162 158
0.181792 -0.100601 -0.356373 0.516746 0.388737 -0.762796 213 196 193
0.151989 0.170422 -0.229291 0.607968 0.407666 -0.68131 157 150 155
0.153598 0.0587359 -0.295644 0.485274 0.36714 -0.793548 213 198 195
0.156611 -0.0443052 -0.344237 0.534171 0.367203 -0.76146 201 184 180
0.128718 0.144046 -0.265556 0.578023 0.416673 -0.701622 205 192 191
0.13048 0.10956 -0.282707 0.523362 0.413683 -0.744955 197 184 183
0.123902 0.132793 -0.274024 0.506558 0.379188 -0.774348 193 179 179
0.154698 -0.328451 -0.45244 -0.166843 0.256953 -0.951914 187 152 136
0.135141 0.305719 0.00946123 0.556816 0.826901 -0.0786822 189 186 191
0.146858 -0.32112 -0.446279 -0.199675 0.265626 -0.943171 185 151 135
0.119894 -0.169996 -0.39619 -0.111451 0.204614 -0.972477 187 156 143
0.096775 0.285533 -0.179587 0.186646 0.847894 -0.496225 199 195 203
0.0869829 0.271379 -0.199632 -0.111655 0.745076 -0.657568 167 163 170
0.0923296 -0.042804 -0.342805 -0.0478616 0.371798 -0.927079 177 149 137
0.0985598 -0.0302942 -0.340762 -0.232185 0.304707 -0.923712 189 161 149
0.107641 -0.324064 -0.44884 0.00553576 0.139071 -0.990267 171 143 133
0.083928 -0.00920826 -0.330757 -0.105267 0.332013 -0.937383 172 146 135
0.101405 -0.424241 -0.479112 -0.228603 0.520179 -0.822894 192 163 152
0.0743671 0.103581 -0.286249 -0.301737 0.313561 -0.900352 187 161 150
0.0667057 0.132688 -0.272157 -0.074051 0.426163 -0.901611 182 156 145
0.0853128 -0.275684 -0.426739 -0.0721308 0.293969 -0.953089 189 161 148
0.0730292 0.143007 -0.269451 -0.382649 0.330521 -0.862749 189 163 151
0.0610488 0.163028 -0.258966 -0.127437 0.458477 -0.879522 179 157 147
0.189619 -0.414332 -0.480099 0.228401 0.334877 -0.914161 162 136 128
0.0596308 0.176347 -0.253076 -0.110261 0.450552 -0.885915 181 156 145
0.0658734 -0.0676905 -0.351131 -0.0167154 0.316726 -0.94837 168 144 137
0.0586894 -0.12382 -0.372536 -0.0337618 0.266088 -0.963357 191 163 152
0.0425164 0.26201 -0.207996 0.0464358 0.545657 -0.836721 184 170 167
0.0494427 0.311941 -0.0984438 -0.219851 0.974789 -0.0381106 191 185 191
0.0680321 -0.43143 -0.483443 -0.210635 0.701701 -0.680623 182 157 148
0.0462395 -0.122385 -0.373112 -0.13372 0.416247 -0.899365 191 164 153
0.0276863 0.151135 -0.27519 0.555828 0.129182 -0.821198 174 154 148
0.0254929 0.16992 -0.262535 0.246197 0.553259 -0.795797 169 153 150
0.0475915 -0.368142 -0.451206 -0.00640392 0.366302 -0.930474 175 146 136
0.0312344 0.0288771 -0.314742 -0.0791032 0.502147 -0.861157 192 169 160
0.0325252 -0.123698 -0.37169 -0.122091 0.399312 -0.908649 188 164 153
0.0224941 0.224906 -0.234018 0.235547 0.510282 -0.827122 169 156 154
0.0434524 -0.439579 -0.482184 -0.046639 0.461592 -0.885865 193 164 152
0.0156555 0.231722 -0.230411 0.136061 0.52489 -0.840226 171 157 154
0.0214601 0.307279 -0.140655 0.141206 0.970826 -0.193803 105 104 116
0.0369602 0.307252 0.0394836 0.173554 0.98453 0.0240802 177 178 189
0.0189462 -0.130634 -0.370487 -0.0797567 0.510005 -0.856465 190 164 153
0.00580661 0.314729 -0.115954 0.0942601 0.955422 -0.279793 170 168 178
0.017585 -0.268067 -0.417192 0.0344881 0.379654 -0.924485 112 93 90
0.00523954 0.029705 -0.315213 -0.105792 0.462242 -0.880421 193 170 160
0.00585476 -0.0868967 -0.352632 -0.190315 0.147219 -0.970621 170 144 136
0.00429485 -0.292391 -0.428001 0.00212217 0.321292 -0.946977 186 159 148
0.00148929 -0.363595 -0.445737 -0.390523 0.102203 -0.914903 157 132 126
-0.0129689 0.307059 -0.151819 0.121945 0.901473 -0.415303 205 198 203
-0.0179578 -0.308633 -0.431809 -0.00785517 0.210436 -0.977576 134 113 111
-0.0262033 -0.006171 -0.325333 -0.0145045 0.258191 -0.965985 110 88 84
-0.0428255 -0.069573 -0.346216 -0.107064 0.336252 -0.935667 177 156 149
-0.0373744 -0.547286 -0.507229 -0.210739 0.322772 -0.922717 102 57 50
-0.047468 0.131883 -0.26059 0.328589 0.424778 -0.843559 168 151 146
-0.0538042 0.144791 -0.257223 0.3604 0.416009 -0.834895 166 150 146
-0.0557655 0.307032 -0.187509 0.219522 0.908258 -0.3562 159 157 168
-0.0583782 0.166098 -0.250663 0.226166 0.416886 -0.880372 170 151 146
-0.0585918 0.19198 -0.234738 0.377911 0.431696 -0.819037 168 153 148
-0.0640391 0.206687 -0.234672 0.212998 0.405768 -0.888811 171 153 149
-0.062388 -0.538327 -0.49965 -0.0575775 0.348964 -0.935366 177 145 134
-0.0734561 -0.390322 -0.4489 -0.180607 0.295287 -0.938183 61 76 32
-0.0755491 0.32282 -0.143887 0.137744 0.984268 -0.110641 199 195 202
-0.0639782 0.332328 0.0425111 0.587385 0.804137 -0.0913367 171 173 186
-0.0842968 0.12577 -0.271456 -0.121151 0.345584 -0.930534 166 148 146
-0.0719979 0.326908 -0.120711 0.117104 0.962115 -0.246212 138 138 150
-0.0630961 0.328513 0.0299204 0.623629 0.773961 -0.109878 174 176 188
-0.060404 0.33343 0.0881212 0.391221 0.91666 0.0817311 113 116 132
-0.0892615 -0.392874 -0.446656 -0.227588 0.300348 -0.92628 59 75 32
-0.0886526 0.155596 -0.265324 0.31313 0.376635 -0.871835 165 147 144
-0.0941496 -0.212162 -0.386583 -0.189317 0.362222 -0.912663 76 47 66
-0.103866 0.334208 -0.123362 0.0905618 0.678978 -0.728551 132 127 135
-0.0929342 0.355538 0.0499921 0.64305 0.764138 -0.0507993 199 197 206
-0.113363 -0.518532 -0.48401 -0.344485 0.354386 -0.869334 158 60 38
-0.0915134 0.35285 0.0307336 0.665805 0.73913 -0.101932 196 195 203
-0.101961 0.349906 -0.00739595 0.430031 0.898723 -0.0858535 196 194 201
-0.110429 0.345934 -0.0520306 0.185553 0.964673 -0.187022 202 199 206
-0.132865 -0.29568 -0.407462 -0.224252 0.280487 -0.933295 162 137 90
-0.14183 -0.236556 -0.382633 -0.210421 0.209093 -0.954988 185 151 124
-0.145751 -0.167391 -0.362432 -0.140733 0.270032 -0.952511 180 153 142
-0.126207 0.342281 -0.0890725 0.187197 0.966553 -0.175307 180 179 190
-0.14709 0.201803 -0.243984 -0.257427 0.304955 -0.916916 142 113 104
-0.151341 0.274113 -0.207199 -0.259068 0.556537 -0.789399 134 123 123
-0.144275 0.334994 -0.127143 -0.0501595 0.938634 -0.341247 125 124 137
-0.165238 0.341484 -0.104097 -0.0681292 0.967254 -0.244495 150 137 141
-0.163909 0.342815 -0.0935649 -0.0708316 0.966597 -0.246319 153 144 149
-0.19659 -0.529231 -0.458671 -0.531355 0.200415 -0.823101 174 139 120
-0.173539 0.255293 -0.213182 -0.124393 0.507626 -0.85255 55 90 51
-0.187363 0.0240878 -0.296987 -0.159818 0.211004 -0.964331 34 33 92
-0.183405 0.156365 -0.253732 -0.127828 0.36971 -0.920312 152 104 90
-0.197492 -0.10407 -0.333139 -0.239421 0.286792 -0.927592 183 154 142
-0.189517 0.146409 -0.257774 -0.168856 0.389958 -0.905218 131 101 103
-0.190868 0.187981 -0.241346 -0.215048 0.356375 -0.909259 79 85 58
-0.2219 -0.521767 -0.437591 -0.252562 0.42652 -0.8685 54 37 35
-0.220525 -0.27881 -0.380459 -0.208363 0.283992 -0.935913 86 63 57
-0.202035 0.145382 -0.256206 -0.147757 0.384361 -0.911282 129 110 113
-0.223242 -0.317418 -0.39278 -0.29797 0.344182 -0.890367 177 149 136
-0.196784 0.340642 -0.106246 -0.0213179 0.962792 -0.2694 46 106 68
-0.209857 0.309629 -0.159374 -0.0603087 0.749534 -0.659213 103 100 93
-0.218466 0.239793 -0.215554 -0.195039 0.339071 -0.92032 69 89 54
-0.244904 -0.24413 -0.363579 -0.228439 0.224087 -0.947418 45 27 49
-0.234275 0.054099 -0.279096 -0.20101 0.235491 -0.950862 104 36 37
-0.218122 0.288066 -0.183201 -0.141151 0.601425 -0.786361 36 38 62
-0.260347 -0.587801 -0.454286 -0.34045 0.185761 -0.92173 132 101 90
-0.274774 -0.532141 -0.424965 -0.376418 0.382693 -0.843716 64 51 55
-0.267752 -0.441975 -0.407756 -0.03575 0.105583 -0.993768 79 60 76
-0.283267 -0.623676 -0.452369 -0.306793 0.179014 -0.93479 115 88 79
-0.223503 0.346683 -0.0941213 0.18091 0.944701 -0.273517 144 154 142
-0.239536 0.254999 -0.203009 -0.136945 0.583088 -0.800783 45 31 41
-0.229328 0.354691 -0.0374645 0.0706923 0.997474 0.00688621 189 187 198
-0.265679 -0.042378 -0.29994 -0.112487 0.355518 -0.927876 131 119 78
-0.236973 0.352944 -0.069182 0.185381 0.941876 -0.280184 128 131 148
-0.263884 0.0298998 -0.278151 -0.388409 0.317161 -0.865187 35 32 74
-0.252229 0.337986 -0.116388 -0.00247842 0.855923 -0.517097 153 159 145
-0.285373 -0.178145 -0.330386 -0.279775 0.228798 -0.932404 33 31 90
-0.247282 0.355138 0.00942404 -0.00641783 0.999978 0.00184995 23 36 140
-0.30968 -0.436842 -0.392006 -0.253934 0.367762 -0.894578 179 147 132
-0.285721 -0.0839572 -0.304504 -0.234604 0.209904 -0.949159 61 58 39
-0.251067 0.356018 0.0378679 0.0159982 0.999865 -0.00371531 118 135 64
-0.328547 -0.616717 -0.432608 -0.260225 0.250822 -0.932401 93 73 72
-0.28611 0.355975 -0.0495751 -0.219224 0.975601 -0.0120316 135 130 137
-0.33384 0.0206241 -0.242323 -0.293329 0.572265 -0.765814 139 126 123
-0.315003 0.344108 -0.0871542 -0.0549209 0.969031 -0.240754 96 94 151
-0.306763 0.355472 0.00410928 0.00443568 0.999969 -0.0064524 107 116 49
-0.339365 0.0624316 -0.234437 -0.12336 0.0787868 -0.98923 65 51 52
-0.310887 0.34778 -0.0663246 0.0394141 0.9873 -0.153906 169 161 170
-0.313582 0.352598 0.133324 0.157498 0.983014 0.0942211 183 183 173
-0.358793 0.0178605 -0.237739 -0.207867 0.560217 -0.80184 134 122 122
-0.323855 0.357185 0.0378274 0.0568214 0.9982 -0.0192044 101 115 56
-0.359746 0.00156705 -0.251721 -0.198587 0.588518 -0.783716 25 23 22
-0.356492 0.260785 -0.178158 -0.0343396 0.436301 -0.899145 164 148 156
-0.344764 0.355993 -0.0176497 0.118374 0.977266 -0.175895 151 162 191
-0.44266 0.0706084 -0.192035 -0.469798 0.304573 -0.828568 100 90 93
0.32494 0.160768 -0.152553 0.599777 0.336133 -0.726142 44 55 169
0.350785 0.0134256 -0.206697 0.671353 0.448792 -0.589806 48 45 127
0.258903 -0.28839 -0.378949 0.636457 0.393423 -0.663432 216 200 197
0.232067 -0.0683722 -0.285346 0.116 0.604667 -0.787986 215 199 196
0.203517 0.0934109 -0.23113 0.551267 0.388046 -0.738597 209 196 196
0.19966 0.114853 -0.220328 0.601377 0.406867 -0.687608 207 195 194
0.214122 -0.210893 -0.381954 0.598127 0.359094 -0.716447 183 169 171
0.161526 0.00305893 -0.316752 0.577759 0.357173 -0.733908 190 178 176
0.132491 0.154596 -0.255791 0.543679 0.45722 -0.703821 192 182 184
0.182211 -0.552295 -0.516929 -0.196027 0.238717 -0.951098 189 155 141
0.128489 -0.182743 -0.400042 -0.107443 0.205706 -0.972698 187 156 143
0.107199 0.284081 -0.171764 0.501727 0.752987 -0.42577 218 216 223
0.106871 -0.103426 -0.375302 -0.3971 0.254612 -0.88175 190 161 150
0.0819057 0.26634 -0.20788 0.158914 0.683309 -0.712626 164 157 163
0.110807 -0.435199 -0.48633 -0.195079 0.56649 -0.800646 189 161 151
0.0832911 0.30123 -0.151249 -0.0625373 0.910459 -0.408845 166 160 168
0.081855 0.033904 -0.315185 -0.0147969 0.339448 -0.940508 192 167 156
0.0768158 0.146021 -0.284759 -0.525995 -0.0262668 -0.850082 187 161 149
0.0957775 -0.340327 -0.447254 0.224767 0.156285 -0.961798 172 143 133
0.0720084 0.165222 -0.263068 -0.332416 0.500057 -0.799651 186 164 155
0.0634099 0.312341 -0.076695 -0.0912773 0.995674 0.0174163 186 183 188
0.038275 -0.0272656 -0.332394 0.0305355 0.337779 -0.94073 170 148 142
0.0470433 0.310207 -0.00719897 0.109946 0.987682 0.111339 138 139 150
0.0466073 -0.471252 -0.486401 0.192899 0.304123 -0.932899 192 162 149
0.0235161 0.30961 -0.129555 0.00233481 0.979198 -0.202896 133 133 145
0.0223716 -0.206999 -0.395219 -0.111447 0.301445 -0.946948 172 145 136
0.0105227 0.226518 -0.236728 0.213871 0.51473 -0.830248 172 157 154
0.0329082 0.312978 0.020376 0.288563 0.955129 0.0667923 178 178 189
-0.000443922 -0.0684386 -0.340738 0.179351 0.342799 -0.922129 171 147 139
-0.013198 0.0387323 -0.311115 -0.066917 0.761459 -0.64475 169 152 147
-0.02602 -0.292786 -0.428772 0.053076 0.171213 -0.983804 132 111 108
-0.0392515 0.123083 -0.264379 0.233322 0.422652 -0.875744 174 153 147
-0.056676 -0.0697273 -0.346663 -0.18964 0.285437 -0.939448 132 115 114
-0.0551997 0.0104613 -0.317917 -0.10668 0.312584 -0.943881 187 165 156
-0.0475154 0.329121 -0.0891773 0.0449426 0.961653 -0.270563 186 182 190
-0.0476739 -0.58536 -0.516006 -0.216157 0.210356 -0.953429 156 130 107
-0.0711483 0.056834 -0.303128 0.217549 0.43902 -0.871742 171 151 147
-0.0818561 -0.375912 -0.444456 -0.0865424 0.256116 -0.962764 64 78 31
-0.0788486 0.0667443 -0.299502 0.17216 0.389146 -0.904946 153 135 134
-0.0904965 0.116137 -0.275448 -0.196773 0.329439 -0.923444 150 134 134
-0.0962579 0.166341 -0.262711 0.286909 0.40161 -0.869708 150 134 134
-0.102474 -0.152545 -0.368671 -0.401442 0.142908 -0.904666 185 155 141
-0.0990293 0.185253 -0.253242 0.240348 0.428382 -0.871046 150 134 133
-0.0999312 0.258121 -0.224942 0.241359 0.0589132 -0.968646 175 148 137
-0.10483 -0.106104 -0.351412 -0.31423 0.17459 -0.933155 184 153 138
-0.108279 0.21563 -0.242381 0.143691 0.43981 -0.886521 148 133 134
-0.122278 -0.345711 -0.425953 -0.145141 0.31925 -0.93649 83 92 39
-0.108653 0.323719 -0.155168 0.106712 0.974871 -0.19555 201 195 201
-0.104265 0.352104 0.0289494 0.377968 0.925767 -0.00976094 200 197 202
-0.110631 0.351802 -0.00254174 0.292938 0.935345 -0.198288 200 196 201
-0.112625 0.352652 -0.0122819 0.355375 0.920394 -0.163044 200 196 201
-0.0834437 -0.560584 -0.502756 -0.254669 0.201205 -0.945865 68 27 29
-0.124696 0.343766 -0.0774559 0.204038 0.970049 -0.131809 184 182 192
-0.154385 0.342772 -0.0997115 -0.00926731 0.969036 -0.246745 155 152 161
-0.187388 -0.467287 -0.450219 -0.28879 0.29428 -0.911043 149 127 101
-0.199571 0.348611 -0.0763553 -0.0234487 0.996185 -0.0840539 49 107 75
-0.264146 -0.559516 -0.444054 -0.408075 0.374913 -0.832415 119 96 89
-0.222726 0.338425 0.183604 -0.154739 0.972019 0.176731 192 187 192
-0.254885 0.20269 -0.225651 -0.262241 0.247942 -0.932606 32 32 86
-0.284933 -0.304819 -0.37113 -0.040867 0.236966 -0.970658 37 32 86
-0.255687 0.357864 -0.0663714 0.132526 0.926018 -0.35345 116 118 135
-0.293054 0.22205 -0.207835 -0.264779 0.251743 -0.930869 48 55 100
-0.302107 0.116336 -0.226869 -0.248259 0.242316 -0.937897 65 55 59
-0.31719 0.0504703 -0.239438 -0.291281 0.118706 -0.949245 88 69 66
-0.337243 -0.0495736 -0.280734 -0.221866 0.180902 -0.958149 57 78 45
-0.30794 0.304218 -0.151318 0.0456066 0.765806 -0.641452 170 161 153
-0.305139 0.355778 0.0338854 -0.0177494 0.998828 0.0450319 68 78 37
-0.341142 0.113062 -0.22536 -0.0639255 0.346937 -0.935707 84 73 75
-0.336282 0.161364 -0.2001 -0.198932 0.596175 -0.777819 72 63 66
-0.399767 0.0845989 -0.213715 -0.527583 0.169584 -0.832405 59 44 42
-0.404007 0.140168 -0.186064 -0.433662 0.411263 -0.801748 66 57 59
-0.426041 0.227307 -0.158167 -0.239478 0.845324 -0.477575 169 140 123
0.358444 -0.274249 -0.299703 -0.574396 0.363881 -0.733253 186 155 141
0.246621 0.404511 -0.0281235 -0.387952 0.613284 -0.688023 179 161 154
0.235178 0.230001 -0.0666002 -0.658372 0.405628 -0.634045 138 117 100
0.209896 0.118046 -0.220205 0.244254 -0.000441732 -0.969711 199 180 173
0.210544 -0.0414349 -0.299207 0.540348 0.311587 -0.781625 206 192 189
0.162987 -0.567216 -0.503979 -0.370865 0.131603 -0.919314 192 159 147
0.099839 -0.190271 -0.399753 0.1447 0.324309 -0.934818 139 115 107
0.0368985 0.299126 -0.166398 -0.0350047 0.952874 -0.301339 207 199 202
0.0503256 0.31005 0.00437517 0.28864 0.952569 0.096437 131 133 143
0.0572393 -0.487886 -0.488414 0.4024 0.238939 -0.883732 192 162 149
0.026217 -0.0407702 -0.333358 -0.139675 0.191621 -0.97148 172 149 143
0.0188265 0.106616 -0.282741 -0.150051 0.153721 -0.976654 174 154 148
-0.0031504 0.233223 -0.233456 -0.204956 0.604988 -0.769404 168 154 151
0.00844221 0.32265 0.01512 0.338187 0.937073 0.0867398 181 181 193
-0.00616721 0.322166 -0.0777172 0.112773 0.984704 -0.132815 179 178 188
-0.0456132 0.327684 -0.0663626 -0.10463 0.984087 -0.143614 187 182 190
-0.0759407 -0.482024 -0.479762 -0.220836 0.221202 -0.949896 67 45 38
-0.100739 -0.225931 -0.389311 -0.288783 0.230455 -0.929245 59 49 94
-0.116095 -0.00749902 -0.317914 -0.284387 0.35689 -0.889805 69 69 92
-0.156533 -0.673502 -0.517474 -0.269023 0.187177 -0.94477 38 32 87
-0.168385 -0.130899 -0.347867 -0.167871 0.247891 -0.954133 28 40 89
-0.176359 0.349164 -0.0581028 0.145477 0.986975 -0.068686 146 129 136
-0.22638 -0.0126986 -0.29983 -0.187168 0.3376 -0.922493 39 37 86
-0.230772 0.108796 -0.261483 -0.289071 0.0804291 -0.953923 34 36 97
-0.248874 -0.380031 -0.409352 0.222125 0.178087 -0.958617 43 35 85
-0.291024 -0.560998 -0.432939 -0.325944 0.502503 -0.800781 140 117 109
-0.288796 0.0247561 -0.26776 -0.365016 0.566824 -0.738562 67 60 84
-0.300835 -0.0342835 -0.287924 -0.21423 0.255323 -0.942823 62 75 45
-0.399383 0.344169 -0.0111464 0.0596712 0.982073 -0.178808 188 178 179
0.295156 0.111615 -0.174811 -0.565599 0.223103 -0.793929 191 167 156
0.202878 0.204194 -0.0914517 -0.417164 0.386794 -0.822414 192 176 171
0.135012 0.227962 -0.203845 0.630153 0.493447 -0.599513 217 206 207
0.143453 0.285293 -0.109403 0.316994 0.5971 -0.736876 206 194 193
0.10918 -0.335918 -0.451637 -0.146555 0.177746 -0.973102 171 143 133
0.0675444 0.11212 -0.280748 -0.047858 0.393144 -0.918231 172 146 135
0.0667895 0.306949 -0.0118775 0.26674 0.963575 0.0193305 181 179 185
0.0545623 0.111375 -0.280524 -0.13009 0.349031 -0.928038 134 115 108
0.0335063 -0.261495 -0.409137 -0.180097 0.872602 -0.454016 161 139 133
-0.0147642 0.200784 -0.242491 0.416423 0.48604 -0.768347 172 152 145
-0.0433565 0.306146 -0.184189 0.194749 0.887223 -0.41822 175 169 176
-0.0989607 0.058415 -0.301089 0.234098 -0.0124775 -0.972133 123 106 105
-0.172752 -0.538148 -0.474684 -0.287589 0.256518 -0.922763 105 78 67
-0.165281 -0.225638 -0.377557 -0.271962 0.322922 -0.906508 181 148 126
-0.227292 0.0189932 -0.290746 -0.273874 0.291179 -0.916629 32 30 92
-0.250199 0.236236 -0.210334 -0.199975 0.387116 -0.900084 38 36 91
-0.229122 0.350331 -0.0759074 0.103417 0.979755 -0.171421 140 143 160
-0.292887 -0.00218546 -0.277924 -0.184571 0.335632 -0.923734 48 46 104
-0.39294 0.0990662 -0.213641 -0.503216 0.253013 -0.826291 120 99 88
-0.413081 0.268081 -0.148112 -0.175057 0.698701 -0.693666 180 165 159
0.156201 -0.0893583 -0.364878 0.448193 0.376167 -0.810939 177 159 157
0.144726 -0.296528 -0.437749 -0.237597 0.193182 -0.95196 184 151 135
0.108851 0.239288 -0.216309 -0.235767 0.478875 -0.845631 210 200 203
0.11538 -0.30181 -0.434358 -0.0620468 0.34281 -0.937353 106 80 73
0.0585475 0.308237 -0.101133 0.212611 0.974994 -0.0646797 191 187 193
0.0323956 0.24418 -0.218447 0.170321 0.497251 -0.850725 116 103 102
0.010858 0.320253 0.0267948 0.377318 0.920571 -0.100899 185 183 194
-0.0582092 0.057301 -0.300164 0.266673 0.428596 -0.863245 174 155 150
-0.118042 0.345144 0.102814 0.220959 0.974245 0.044974 200 198 207
-0.203563 0.317448 -0.151331 -0.0165243 0.775765 -0.630806 140 147 128
-0.261647 0.355801 0.0345053 0.0116111 0.999924 0.00411964 122 140 57
-0.370303 0.359911 0.0492916 -0.316589 0.945261 0.0790677 188 182 186
0.30067 -0.216492 -0.250598 -0.237471 0.303448 -0.922782 86 54 41
0.261615 -0.394322 -0.428845 0.628568 0.425581 -0.650986 144 137 140
0.147028 0.00487783 -0.325387 0.473014 0.395743 -0.787175 200 182 179
0.107215 -0.612219 -0.500026 -0.554979 0.155613 -0.81718 190 158 144
-0.122198 -0.3702 -0.432937 -0.22153 0.316575 -0.922336 68 79 34
-0.187923 0.0478754 -0.290081 -0.144133 0.387844 -0.910386 56 40 78
-0.294957 -0.462449 -0.405317 -0.251634 0.131514 -0.958846 65 46 41
-0.235649 0.307933 -0.158882 -0.0802356 0.741891 -0.665703 107 52 42
