ply
format ascii 1.0
element vertex 233
property float x
property float y
property float z
property float nx
property float ny
property float nz
property uchar diffuse_red
property uchar diffuse_green
property uchar diffuse_blue
end_header
0.464699 -0.373858 -0.224624 0.987343 0.139146 0.0761074 50 37 64
0.466903 -0.343309 -0.157556 0.984752 0.143625 0.0981582 69 49 77
0.413219 -0.107314 -0.171147 0.943413 0.296144 -0.14923 38 109 65
0.462591 -0.317339 -0.141583 0.983838 0.178399 0.0153663 62 53 70
0.449115 -0.21298 -0.132587 0.981863 0.187538 -0.0278621 157 65 43
0.464748 -0.363631 -0.116988 0.912009 -0.0283181 0.409191 153 164 183
0.445654 -0.182875 -0.10272 0.982517 0.184095 0.0277388 111 122 120
0.358301 0.215453 -0.0588869 0.930686 0.29705 -0.213506 192 194 206
0.354462 0.267995 -0.0372274 0.939057 0.27386 -0.207784 161 177 175
0.357768 0.247265 -0.0260493 0.937721 0.302687 -0.170471 80 77 89
0.368768 0.269139 0.0175785 0.947204 0.317574 -0.0441903 176 186 213
0.329987 0.40084 0.0686518 0.959332 0.282253 0.00402851 21 25 170
0.359554 0.285214 0.111253 0.959315 0.190352 0.20852 33 50 106
0.365269 -0.40912 0.0336374 0.874767 -0.0529444 0.481644 165 176 196
0.340907 0.213473 0.121474 0.534036 -0.0581744 0.843458 162 170 206
0.339252 -0.398344 0.0781108 0.839687 0.126581 0.528113 138 151 177
0.322725 0.275688 0.137752 0.137635 -0.140999 0.980396 154 165 196
0.334062 -0.439847 0.0781228 0.762606 0.0558757 0.644446 143 154 177
0.332996 -0.306926 0.103293 0.920447 -0.0243031 0.390111 136 149 176
0.302922 0.304646 0.152635 0.7238 0.214302 0.655887 156 153 155
0.319857 -0.170935 0.124667 0.871649 -0.0124431 0.489973 150 160 180
0.314025 -0.157231 0.13602 0.868174 -0.0218234 0.495779 94 101 121
0.313606 -0.225334 0.137302 0.876301 0.0797414 0.475118 146 157 180
0.311323 -0.175305 0.140469 0.880831 0.00282141 0.473423 124 137 160
0.305486 -0.161612 0.151736 0.887279 -0.0200345 0.460797 145 158 181
0.300596 -0.146838 0.164067 0.90758 -0.0911629 0.409864 138 151 176
0.25896 -0.56832 0.0837401 0.353949 -0.321569 0.878245 122 129 155
0.295363 -0.0424423 0.167982 0.869878 0.0484268 0.490883 155 165 183
0.289755 -0.0298766 0.177468 0.835215 0.0439513 0.548164 110 119 137
0.249285 -0.513198 0.106429 0.475719 -0.29249 0.829543 117 125 149
0.279299 0.00968291 0.192269 0.875226 0.00220654 0.483709 75 82 100
0.281228 -0.0322574 0.191192 0.852175 0.0980494 0.513988 139 152 174
0.285802 -0.0620029 0.18681 0.821434 0.120437 0.557441 144 157 179
0.27714 -0.00654251 0.196407 0.865336 0.0195392 0.500811 117 129 150
0.277111 -0.00624908 0.196464 0.868367 0.0148896 0.495698 121 133 155
0.27305 -0.0367523 0.205665 0.892712 0.0820527 0.443095 116 127 148
0.223816 -0.421817 0.143948 0.459081 -0.239017 0.855638 123 129 151
0.263334 8.20742e-05 0.21904 0.887168 0.0755047 0.455227 103 114 135
0.239845 0.046029 0.238824 0.478265 -0.135508 0.867698 168 177 194
0.216603 -0.216051 0.208705 0.55442 -0.182583 0.811962 103 110 128
0.180621 -0.428726 0.161373 0.49686 -0.236136 0.835087 133 137 156
0.12753 -0.718442 0.104551 0.309423 -0.260256 0.914617 36 37 64
0.0962605 -0.786741 0.089132 0.301253 -0.365313 0.880791 109 115 128
0.164022 -0.373325 0.186511 0.32614 -0.205225 0.922776 127 132 151
0.105956 -0.685736 0.121657 0.342683 -0.301019 0.889919 40 33 65
0.062068 -0.770647 0.105686 0.236642 -0.296058 0.925392 83 82 103
0.174089 -0.104649 0.251043 0.420068 -0.284541 0.86173 124 130 149
0.0505779 -0.752589 0.113515 0.267892 -0.282762 0.921021 65 67 86
0.0860318 -0.603656 0.151879 0.279722 -0.202459 0.938491 80 105 101
0.0956032 0.229065 0.226546 0.28043 0.78786 0.548303 162 167 183
0.149954 -0.132412 0.256037 0.331536 -0.29958 0.894615 78 83 100
0.114084 0.195452 0.261765 0.474599 0.680749 0.557974 150 157 174
0.152413 0.0965451 0.304087 0.558059 0.094825 0.824366 102 110 129
0.0308787 -0.526822 0.190877 0.198471 -0.235983 0.951273 42 81 43
0.107054 0.193304 0.273297 0.482287 0.536493 0.692513 162 168 185
0.119859 -0.127504 0.267729 0.495069 -0.0970017 0.863422 118 123 141
0.147677 0.115717 0.30418 0.607095 0.115099 0.786249 150 156 169
0.13881 0.11347 0.310773 0.603853 0.11198 0.789191 117 123 137
0.0344592 -0.45236 0.208495 0.336463 -0.281567 0.898618 56 40 55
0.0558537 -0.293775 0.248637 0.343908 -0.17884 0.921815 81 74 90
0.124171 0.0948757 0.315379 0.628352 -0.0532402 0.776105 141 149 168
0.0501732 0.193017 0.304061 0.358561 0.752792 0.552032 158 165 184
0.0216728 0.200366 0.311537 0.226801 0.708313 0.668471 158 166 185
-0.0318781 0.235352 0.306497 0.231028 0.749139 0.620819 184 188 203
0.0235057 -0.0435947 0.335989 0.223768 -0.30145 0.926852 127 128 139
-0.0703578 -0.235528 0.303088 0.256805 -0.341474 0.904127 26 43 93
-0.0195703 0.0246165 0.369111 0.189796 -0.242006 0.951531 24 60 39
-0.0466195 -0.0534221 0.354682 0.306251 -0.297098 0.904402 72 64 70
-0.0860664 -0.162409 0.331027 0.244543 -0.235795 0.940531 74 41 54
-0.0262335 0.069589 0.380537 0.194789 -0.172146 0.96562 19 52 49
-0.0503401 0.169277 0.37429 0.365796 0.468026 0.804453 24 35 127
-0.0695588 -0.0126747 0.376634 0.216389 -0.2118 0.953057 125 132 124
-0.0899136 0.1547 0.393711 0.396094 0.304297 0.866321 25 35 132
-0.100916 -0.00637314 0.385179 0.211995 -0.266233 0.940308 35 33 84
-0.185281 -0.161636 0.328573 0.156165 -0.312532 0.936983 55 60 80
-0.131669 0.212389 0.371922 0.323459 0.624607 0.710803 131 141 166
-0.170185 -0.0860179 0.3647 0.405545 -0.22697 0.885448 112 118 136
-0.230485 0.203439 0.405495 0.331554 0.627018 0.704925 140 149 193
-0.193233 0.12813 0.43261 0.438911 0.144823 0.886783 23 35 136
0.445708 -0.268491 -0.218335 0.960052 0.265768 -0.0875568 144 128 138
0.455211 -0.262888 -0.122366 0.986458 0.156857 0.0479311 46 37 68
0.462091 -0.302293 -0.116514 0.886911 0.339859 0.312866 172 178 199
0.436912 -0.153789 -0.0645252 0.97125 0.237984 0.00620818 29 105 66
0.380092 0.18573 -0.0401789 0.972778 0.191425 -0.130612 200 206 223
0.379416 0.206791 -0.00427 0.95413 0.238923 -0.180424 77 61 99
0.412896 0.0291744 -9.91946e-05 0.986295 0.0689959 0.14987 106 80 93
0.416412 -0.00281568 0.0133991 0.973237 0.229407 -0.0134639 105 139 69
0.421763 -0.158145 -0.00911673 0.886179 -0.0828276 0.45588 52 48 57
0.375785 0.238973 0.0427757 0.986855 0.0795566 0.140672 83 90 149
0.403014 0.0622673 0.0524498 0.927393 0.36019 0.101016 58 51 105
0.362335 0.305778 0.0542701 0.923992 0.379062 -0.0505115 141 171 221
0.389223 0.0836299 0.0709322 0.863129 0.264415 0.430226 187 191 211
0.369566 -0.702553 -0.0472156 0.866625 0.373358 0.331008 151 155 175
0.384332 -0.479575 0.00881968 0.797444 -0.058301 0.600569 167 177 197
0.358842 -0.400259 0.0317046 0.94416 0.151916 0.292375 170 179 199
0.345057 -0.336274 0.055382 0.987071 0.0580502 0.149399 169 178 199
0.358839 -0.467392 0.043547 0.870494 -0.037186 0.490771 137 151 177
0.310306 0.416308 0.142301 0.456174 0.391224 0.799281 80 55 109
0.33867 -0.498464 0.0648301 0.775045 -0.0329601 0.631046 153 164 187
0.32815 -0.202624 0.0981043 0.939029 0.169149 0.299356 174 182 200
0.325108 -0.188949 0.112065 0.914432 0.021127 0.404187 173 182 201
0.321102 -0.155796 0.118978 0.912616 0.0229606 0.408174 177 185 203
0.315292 -0.374169 0.116107 0.320505 -0.305811 0.896525 154 164 185
0.313955 -0.33924 0.133235 0.518434 -0.264946 0.813037 155 165 186
0.308909 -0.193853 0.144869 0.885851 0.0331895 0.462781 148 160 183
0.295549 -0.0323438 0.160223 0.925499 0.112597 0.361627 179 187 205
0.290405 -0.0179987 0.171739 0.906598 0.0811617 0.414117 167 177 194
0.291056 -0.0153307 0.172379 0.87644 0.07454 0.475707 177 186 204
0.284243 0.0096105 0.175387 0.967024 0.128349 0.219977 170 180 197
0.259687 -0.483731 0.11224 0.290856 -0.319332 0.901904 74 84 112
0.238041 -0.57229 0.0875514 0.353935 -0.187277 0.916329 120 128 151
0.275322 -0.0223307 0.200829 0.871383 0.0478849 0.488262 146 158 179
0.23813 -0.305118 0.172001 0.271435 -0.341584 0.899802 147 151 168
0.240478 -0.334879 0.162962 0.231134 -0.193644 0.953457 77 85 107
0.217985 -0.410157 0.148103 0.290272 -0.14388 0.946066 128 134 154
0.190196 -0.550641 0.121111 0.711929 -0.149006 0.686261 122 129 152
0.250779 -0.219022 0.193344 0.246424 -0.292462 0.923981 145 146 159
0.215261 -0.411007 0.146517 0.277848 -0.0939236 0.956022 128 134 153
0.196654 -0.258927 0.202129 0.302419 -0.238883 0.922756 117 124 143
0.197038 -0.240166 0.206042 0.608612 -0.303599 0.733088 123 129 148
0.156938 -0.492923 0.161418 0.486398 -0.245574 0.838517 147 150 167
0.225424 -0.0653138 0.240692 0.267699 -0.195747 0.943409 148 148 161
0.184371 -0.285769 0.202715 0.267985 0.0445387 0.962393 94 100 119
0.168754 -0.385543 0.177243 0.49716 -0.178604 0.849077 129 134 153
0.157696 -0.26585 0.214436 0.401285 -0.237315 0.884676 124 129 148
0.177969 -0.151172 0.240051 0.38385 -0.0745431 0.920381 154 156 169
0.148344 -0.275546 0.216378 0.469905 -0.156596 0.868716 120 126 144
0.165995 -0.0975951 0.251128 0.412045 -0.329933 0.849331 125 131 148
0.135982 -0.306963 0.218722 0.558613 -0.141562 0.817259 82 88 105
0.13902 -0.222362 0.224768 0.756079 -0.205334 0.621436 123 128 146
0.124116 -0.115274 0.268017 0.399576 0.0019616 0.916698 124 128 146
0.110875 -0.141206 0.271755 0.63177 -0.0871406 0.770242 79 87 105
0.123236 0.131763 0.319249 0.514126 0.21055 0.83147 180 184 197
0.0838342 0.0469799 0.323555 0.547214 -0.141032 0.825026 125 132 149
0.0548692 -0.0132817 0.336027 0.559928 -0.212741 0.800763 124 131 151
0.0621334 0.00224224 0.340294 0.777526 -0.0545108 0.626484 127 134 149
-0.0188324 -0.264209 0.28015 0.331663 -0.31687 0.88859 87 106 146
0.0468131 0.0240911 0.349384 0.224101 -0.229563 0.947143 122 129 148
0.0388229 0.0533935 0.357557 0.33317 -0.183897 0.924759 126 133 153
-0.0121439 -0.0697529 0.342135 0.287296 -0.176033 0.941527 7 18 109
-0.0823118 -0.279464 0.289445 0.24484 -0.290261 0.925096 30 35 66
-0.0325648 0.0784986 0.382706 0.209337 -0.120928 0.970337 22 53 79
-0.0528534 0.0769251 0.388853 0.262336 0.0192174 0.964785 16 31 52
-0.124327 0.22334 0.356245 0.250433 0.776688 0.577961 171 181 196
-0.153686 -0.09562 0.349031 0.544541 -0.394144 0.740355 32 42 71
-0.101078 0.177806 0.389731 0.456728 0.357315 0.814693 168 172 186
-0.095023 0.00514389 0.387844 0.213634 -0.275573 0.937241 39 35 48
-0.177691 -0.0556356 0.373911 0.314831 -0.103442 0.943494 40 47 70
-0.135005 0.18931 0.403358 0.390307 0.300893 0.870129 86 93 115
-0.130225 0.157853 0.410059 0.259525 0.446059 0.856551 158 159 173
-0.148686 0.154588 0.414565 0.255134 0.239649 0.936736 154 155 170
-0.178994 0.0370978 0.419527 0.571404 -0.210467 0.793222 13 22 106
-0.174827 0.0958947 0.429783 0.307618 -0.096737 0.94658 17 22 62
-0.203199 0.15981 0.42753 0.381182 0.32963 0.863739 31 43 137
0.409518 0.0201896 -0.0911083 0.967186 0.225212 -0.117604 81 60 71
0.431841 -0.105206 -0.102251 0.959122 0.255093 -0.122531 94 136 113
0.449585 -0.339326 -0.0788783 0.965441 0.0209578 0.25978 22 38 89
0.435516 -0.134361 -0.0623162 0.97388 0.138661 0.179811 31 103 62
0.405449 0.058364 -0.0346214 0.907051 0.40195 -0.125282 198 202 210
0.414057 -0.0244466 0.017742 0.958663 0.189133 0.212588 97 125 67
0.347427 0.347084 0.0468097 0.940211 0.316796 -0.125075 36 61 113
0.370395 -0.590423 0.0110721 0.819384 -0.0721941 0.568679 164 173 196
0.352113 -0.353863 0.0404267 0.957094 0.0559255 0.28433 174 181 201
0.320661 0.334196 0.122293 0.798838 0.390988 0.45715 35 100 192
0.33321 -0.252877 0.0971059 0.943636 0.110748 0.311908 169 177 197
0.319701 0.198281 0.135531 -0.0168058 -0.260572 0.965308 146 144 145
0.30692 0.247395 0.145725 0.129061 -0.1849 0.974246 150 147 146
0.29626 -0.610214 0.0680436 0.151249 0.245735 0.957464 139 145 168
0.307686 -0.0893315 0.150668 0.940537 0.073486 0.331648 179 186 203
0.295015 -0.48036 0.1025 0.267011 -0.302202 0.915084 135 139 156
0.303753 -0.279955 0.144018 0.789211 -0.0737518 0.609677 160 169 188
0.274545 -0.38707 0.1364 0.261411 -0.277802 0.924387 139 142 158
0.224855 -0.571678 0.096421 0.388105 -0.313094 0.866803 119 126 150
0.284763 -0.112293 0.195034 0.777476 -0.177129 0.603454 163 171 189
0.213722 -0.550333 0.113153 0.380195 -0.186457 0.905917 120 126 150
0.263613 0.0244839 0.219521 0.887042 -0.0652894 0.457049 99 112 135
0.177192 -0.402752 0.161478 0.72607 -0.210377 0.654649 128 132 151
0.222848 -0.134029 0.224711 0.339453 -0.255751 0.905186 151 153 166
0.182419 -0.247479 0.208558 0.340411 -0.265062 0.902143 124 130 149
0.17464 -0.234119 0.217655 0.724213 -0.219605 0.653672 124 128 148
0.044089 0.27568 0.157834 0.387072 0.815414 0.430435 170 176 192
0.161338 -0.251193 0.214539 0.314011 -0.377097 0.871318 124 129 148
0.152577 -0.242507 0.215856 0.700614 -0.244339 0.670401 124 129 148
0.160678 -0.167045 0.242542 0.449877 -0.176342 0.875508 149 152 167
0.109544 -0.364601 0.217333 0.167772 -0.271464 0.947713 116 122 142
0.0845416 0.204592 0.269843 0.425761 0.712439 0.557816 168 173 191
0.0999166 -0.179725 0.271465 0.507154 -0.208717 0.836201 148 150 165
0.0898351 -0.260157 0.252722 0.354645 -0.226635 0.907118 114 120 141
0.0520077 -0.41645 0.216199 0.32297 -0.241879 0.914978 30 30 87
0.0492396 -0.360621 0.232896 0.245656 -0.305829 0.919848 143 143 157
0.112272 0.138617 0.318523 0.49963 0.181516 0.847007 192 196 208
0.0394797 -0.293187 0.254195 0.312917 -0.103457 0.944129 116 113 130
0.101653 0.0518197 0.324331 0.409426 -0.345359 0.844451 128 133 150
-0.0172394 -0.458682 0.219026 0.313102 -0.206173 0.92707 141 140 152
0.107104 0.0984602 0.337703 0.785927 -0.298182 0.54167 113 125 152
0.0694343 0.0654886 0.334842 0.728742 -0.0864585 0.679308 114 121 140
0.0295044 0.0329651 0.357527 0.319232 -0.200842 0.92615 103 108 127
-0.0283726 0.223697 0.318065 0.286271 0.783508 0.55151 167 172 189
-0.138041 0.25752 0.313948 0.166287 0.80995 0.562432 81 115 67
-0.0474585 0.0684424 0.385818 0.275912 -0.130594 0.95227 23 53 44
-0.131868 0.219135 0.363267 0.301319 0.706891 0.63993 142 150 172
-0.0889839 0.0172756 0.391641 0.266312 -0.257989 0.92872 28 42 41
-0.145653 0.163147 0.411712 0.242915 0.218604 0.945095 155 156 166
0.467584 -0.399831 -0.150616 0.982979 0.149782 0.106385 139 155 165
0.435652 -0.133345 -0.0890619 0.964039 0.247948 -0.0956585 68 122 91
0.386776 0.181853 0.0256138 0.992743 0.085523 0.0845469 69 87 142
0.350239 0.303656 0.129395 0.93855 0.100141 0.330295 54 98 159
0.348125 -0.254799 0.0681598 0.963315 -0.0237067 0.267324 177 184 203
0.321227 -0.361824 0.109343 0.831522 -0.073577 0.550597 137 148 171
0.26238 -0.343011 0.152885 0.280419 -0.281161 0.917777 140 142 157
0.202881 -0.666723 0.0767458 0.76421 -0.0943227 0.638033 140 145 166
0.146788 -0.816126 0.0631886 0.510825 -0.169556 0.842798 60 58 87
0.158578 0.142829 0.28521 0.42525 0.399965 0.811905 182 185 198
0.0771983 0.221462 0.278495 -0.0843855 0.652658 0.752938 170 176 195
-0.0179575 -0.411435 0.235268 0.339703 -0.34911 0.873341 137 137 147
-0.066474 -0.302661 0.278755 0.241162 -0.210664 0.947345 105 104 117
-0.0619567 -0.220934 0.306754 0.311082 -0.380427 0.870921 31 37 75
-0.0202488 -0.0942167 0.339342 0.513217 -0.437966 0.738102 7 19 109
-0.141225 0.226174 0.365986 0.229262 0.912861 0.337821 148 153 170
0.339633 -0.206407 0.0575033 0.988667 0.136685 0.0620795 161 166 182
0.250738 -0.405517 0.138898 0.324637 -0.283789 0.902261 107 114 133
0.183246 0.0857843 0.282095 0.550226 0.0971763 0.829341 157 160 170
0.129224 -0.183405 0.253504 0.368035 -0.224758 0.902238 123 128 144
-0.104185 0.299428 0.232505 0.325511 0.77803 0.537318 191 193 205
-0.127567 0.197648 0.387087 0.395287 0.587551 0.706068 112 123 148
0.327817 0.396854 0.0938573 0.387335 0.903147 0.185197 59 52 155
0.327478 -0.237124 0.111423 0.890842 0.066987 0.449347 107 116 138
0.272403 -0.205499 0.18783 0.303116 -0.254508 0.918339 115 124 148
-0.0148186 -0.552842 0.193427 0.441819 -0.324236 0.836461 39 74 51
-0.0721026 -0.160127 0.327414 0.22558 -0.288213 0.930617 83 45 57
-0.0768451 0.111376 0.398148 0.591691 -0.00395556 0.806156 19 44 103
0.423595 -0.0221582 -0.0331101 0.976013 0.211058 -0.0534061 97 130 59
0.143252 0.0942522 0.309715 0.515465 0.075638 0.853566 124 131 150
