ply
format ascii 1.0
element vertex 360
property float x
property float y
property float z
property float nx
property float ny
property float nz
property uchar diffuse_red
property uchar diffuse_green
property uchar diffuse_blue
end_header
0.33672 0.285709 0.134083 0.58499 0.0482778 0.809602 29 59 109
0.344521 0.153105 0.10516 0.639752 -0.179565 0.747312 173 176 189
0.418998 -0.320908 -0.0631176 -0.277592 -0.441487 0.853248 150 155 174
0.434812 -0.470588 -0.133108 0.304864 -0.329745 0.893491 142 148 168
0.255513 0.0361838 0.223616 0.697379 0.28906 0.655826 135 143 163
0.239845 0.046029 0.238824 0.478265 -0.135508 0.867698 168 177 194
0.261056 -0.0575661 0.220267 0.828671 0.00475949 0.559715 154 164 184
0.208893 0.135875 0.260283 0.0823951 0.351672 0.93249 151 160 181
0.307721 -0.269191 0.131194 0.836224 0.0359445 0.547208 171 179 199
0.32434 -0.399692 0.0917798 0.844075 0.110473 0.524722 158 169 191
0.326625 -0.423909 0.0915264 0.807596 0.000672089 0.589735 151 162 184
0.328975 -0.48746 0.0701803 0.313425 -0.277708 0.908098 136 149 173
0.180542 0.0744569 0.282998 0.570114 -0.012318 0.821473 131 134 146
0.31308 -0.478624 0.0937603 0.430202 -0.250065 0.867407 82 94 125
0.33763 -0.611998 0.0433709 0.667703 -0.13089 0.73283 117 126 153
0.166903 0.0575398 0.290375 0.538503 -0.0756328 0.839222 121 128 147
0.152413 0.0965451 0.304087 0.558059 0.094825 0.824366 102 110 129
0.15598 0.0773479 0.302331 0.641861 -0.138484 0.754213 124 131 150
0.13881 0.11347 0.310773 0.603853 0.11198 0.789191 117 123 137
0.10908 0.183222 0.279913 0.411254 0.665521 0.622857 154 162 180
0.187952 -0.101712 0.246254 0.353025 -0.236125 0.905328 122 129 147
0.124171 0.0948757 0.315379 0.628352 -0.0532402 0.776105 141 149 168
0.181464 -0.29921 0.198342 0.30452 0.115446 0.945484 70 78 97
0.205217 -0.440774 0.144954 0.426044 -0.160823 0.890294 97 104 125
-0.00629792 0.295676 0.15882 0.342642 0.807748 0.47973 174 179 196
0.132554 -0.120053 0.272092 0.374133 -0.439695 0.816513 119 125 144
0.135982 -0.169536 0.254129 0.414295 -0.299129 0.859582 151 154 167
-0.0240556 0.295399 0.176125 0.385882 0.864268 0.322701 158 163 178
0.13902 -0.222362 0.224768 0.756079 -0.205334 0.621436 123 128 146
0.164022 -0.373325 0.186511 0.32614 -0.205225 0.922776 127 132 151
0.184167 -0.536722 0.130817 0.661736 -0.137789 0.736967 116 125 149
0.192102 -0.580962 0.113314 0.732079 -0.109516 0.672359 117 124 148
-0.0149264 0.266666 0.233627 0.644425 0.693433 0.322284 135 140 156
0.0252701 0.194398 0.317843 0.373542 0.718452 0.586766 165 173 191
0.00618982 0.213464 0.309901 0.33278 0.764213 0.552482 115 122 138
0.121902 -0.495512 0.173271 0.118956 -0.363913 0.923805 82 92 118
0.114735 -0.544227 0.163065 0.270502 -0.262919 0.926122 90 96 113
0.0529269 -0.213567 0.276302 0.335723 -0.279769 0.899455 110 112 128
0.0730815 -0.341965 0.232382 0.309095 -0.247822 0.918174 105 106 120
0.0546527 -0.238451 0.268978 0.165451 -0.317349 0.933765 103 105 125
0.0624516 -0.278129 0.253214 0.192071 -0.386334 0.90214 114 114 129
0.00813502 0.0180135 0.358645 0.231901 -0.216604 0.948317 116 119 127
0.0254615 -0.0873035 0.321941 0.383206 -0.250115 0.889155 113 114 129
0.134579 -0.795726 0.076265 0.341405 -0.353569 0.87088 117 122 139
0.0474714 -0.30494 0.249303 0.247313 -0.221994 0.943163 133 131 144
0.00554989 -0.0357607 0.345825 0.587282 -0.24877 0.770203 45 31 43
-0.0503401 0.169277 0.37429 0.365796 0.468026 0.804453 24 35 127
-0.0134811 0.0151075 0.36503 0.228064 -0.257956 0.938853 36 77 51
0.107032 -0.757354 0.0987455 0.265777 -0.295503 0.917628 128 130 148
-0.0838895 0.230752 0.326145 0.351862 0.760193 0.546169 126 127 139
-0.0386489 0.107659 0.386173 0.222513 0.202613 0.953643 29 64 138
-0.0801705 0.208291 0.350356 0.312521 0.669876 0.673496 56 59 72
0.00801429 -0.243372 0.278991 0.21703 -0.40887 0.886411 16 30 98
-0.0121439 -0.0697529 0.342135 0.287296 -0.176033 0.941527 7 18 109
0.0246971 -0.37794 0.233887 0.294662 -0.225945 0.928506 147 148 160
0.0836366 -0.769008 0.0968253 0.340105 -0.285496 0.896003 29 25 48
0.0344592 -0.45236 0.208495 0.336463 -0.281567 0.898618 56 40 55
-0.0371186 0.0117463 0.371249 0.248298 -0.260956 0.932872 39 64 41
-0.0536218 0.115946 0.392236 0.201803 -0.154107 0.967226 16 33 139
-0.0821488 0.180892 0.375722 0.347501 0.524017 0.777592 41 49 88
0.0165611 -0.425101 0.22365 0.25198 -0.263534 0.931158 137 135 139
0.0632414 -0.809908 0.091312 0.223969 -0.285968 0.931698 45 47 69
0.00543529 -0.394555 0.235395 0.196228 -0.224086 0.95461 142 142 154
-0.0243695 -0.226439 0.293482 0.330995 -0.251132 0.909601 24 32 70
-0.0987077 0.193871 0.373699 0.39363 0.628118 0.671211 173 179 195
-0.0188324 -0.264209 0.28015 0.331663 -0.31687 0.88859 87 106 146
-0.0899136 0.1547 0.393711 0.396094 0.304297 0.866321 25 35 132
0.0415433 -0.810888 0.0984957 0.218385 -0.264124 0.93944 33 32 63
0.0296422 -0.71806 0.123875 0.251207 -0.190592 0.948983 127 73 71
-0.148753 0.26113 0.312642 0.199334 0.792359 0.576571 66 98 60
-0.0660057 -0.0469087 0.362302 0.336463 -0.273588 0.901079 126 125 134
-0.045022 -0.191996 0.313222 0.240132 -0.350541 0.905239 15 24 102
-0.0167479 -0.490276 0.207478 0.181054 -0.312758 0.932418 32 30 38
-0.0785218 -0.0490627 0.365361 0.4611 -0.0715538 0.884458 50 49 55
-0.188306 0.285276 0.287453 0.203351 0.821428 0.532826 177 180 198
-0.0885942 -0.00477415 0.382887 0.235088 -0.278124 0.931333 43 42 48
-0.0884274 -0.0502224 0.371746 0.556699 -0.130071 0.820468 52 47 62
-0.0438934 -0.477907 0.216017 0.169634 -0.316533 0.93329 141 139 151
-0.0583647 -0.393467 0.245427 0.0478456 -0.349175 0.935835 152 151 162
-0.0136677 -0.800294 0.108355 0.150393 -0.191057 0.96999 47 39 47
-0.108038 0.0449958 0.404088 0.397482 -0.146652 0.905816 13 23 111
-0.0783362 -0.333956 0.269784 0.148183 -0.369601 0.917299 120 120 129
-0.181502 0.254031 0.33463 0.150565 0.81163 0.564435 37 64 52
-0.0772316 -0.362288 0.260088 0.186102 -0.304983 0.933997 145 145 155
-0.0289431 -0.814446 0.0981735 -0.177837 -0.219818 0.959195 108 97 107
-0.112665 -0.0884111 0.340378 -0.0960954 -0.305461 0.947343 102 102 106
-0.212463 0.279486 0.304078 0.128461 0.854233 0.50377 183 186 202
-0.118758 0.00374628 0.39496 0.196977 -0.344033 0.918064 23 30 101
-0.0479541 -0.782137 0.109003 -0.502367 0.198765 0.841498 42 44 62
-0.126732 -0.0332092 0.374394 0.397926 -0.499556 0.769479 110 108 115
-0.255164 0.312396 0.250847 0.127701 0.901027 0.414541 125 143 74
-0.234707 0.290352 0.290273 0.113123 0.874138 0.472319 24 35 109
-0.091027 -0.433249 0.238163 0.122596 -0.353616 0.927322 46 34 42
-0.274562 0.330737 0.218677 0.121337 0.896624 0.425842 125 130 150
-0.282428 0.328254 0.225696 0.326445 0.860009 0.392196 147 150 165
-0.164009 0.136364 0.422935 0.229638 0.262256 0.937277 28 36 125
-0.108398 -0.46584 0.228762 0.112864 -0.342486 0.93272 46 32 72
-0.262921 0.310517 0.2586 0.137873 0.930617 0.339032 120 140 67
-0.228618 0.259263 0.340545 0.141918 0.752031 0.643667 168 172 191
-0.12981 -0.283413 0.295114 0.0835438 -0.302646 0.949435 44 66 49
-0.244037 0.268316 0.330746 0.144045 0.820529 0.553156 78 75 95
-0.105753 -0.711604 0.137501 0.0636235 -0.136963 0.988531 40 44 64
-0.106333 -0.810601 0.100704 0.355967 -0.292484 0.887547 53 57 78
-0.10328 -0.758077 0.130521 0.0664549 -0.27501 0.959142 66 66 87
-0.252937 0.27174 0.329648 0.191442 0.843653 0.501596 77 61 90
-0.306675 0.329693 0.240223 0.154103 0.937458 0.31213 82 80 90
-0.267574 0.286759 0.311564 0.391254 0.819718 0.41831 178 185 180
-0.167545 -0.174729 0.319271 0.0439703 -0.125992 0.991057 119 120 130
-0.121563 -0.743691 0.134817 0.0954041 -0.25938 0.961052 99 100 115
-0.173247 -0.161468 0.326291 0.222257 -0.406599 0.88616 81 84 101
-0.221305 0.205244 0.400365 0.203536 0.6426 0.738674 33 45 153
-0.152217 -0.405224 0.25454 0.042265 -0.355759 0.933621 19 25 97
-0.278164 0.292521 0.310332 0.259216 0.819456 0.511176 190 193 206
-0.235436 0.225194 0.391018 0.348301 0.602184 0.718373 120 133 195
-0.195723 0.119064 0.435315 0.460212 0.116117 0.880182 49 59 140
-0.188832 0.0841781 0.433565 0.393224 -0.0683317 0.9169 32 38 102
-0.181336 -0.127229 0.35098 0.282487 -0.478086 0.831646 98 102 119
-0.302835 0.31036 0.28691 0.0517699 0.875341 0.480725 178 178 189
-0.321352 0.324923 0.255611 -0.00652012 0.920503 0.390683 64 62 71
-0.188577 -0.115134 0.361026 0.318914 -0.44882 0.834779 60 65 88
-0.185963 -0.327706 0.287176 0.0998945 -0.202599 0.974153 44 44 60
-0.309809 0.29599 0.310898 0.0353594 0.754063 0.65585 171 170 180
-0.202086 -0.0397795 0.38166 0.355751 0.0964609 0.929589 36 46 72
-0.200656 -0.400149 0.257533 -0.191858 -0.261289 0.946001 142 139 147
-0.195032 -0.345188 0.281154 0.223138 -0.325823 0.918721 124 124 141
-0.227161 -0.0215393 0.393838 0.115852 -0.488015 0.865112 84 85 102
-0.220403 -0.141739 0.353 0.0976994 -0.443448 0.89096 114 115 123
-0.22451 -0.223936 0.330453 0.110753 -0.14852 0.982688 27 28 34
-0.230614 -0.0727886 0.381479 -0.0153211 -0.147319 0.988971 50 51 66
-0.33464 0.28444 0.322825 -0.231131 0.773275 0.590445 177 174 179
-0.243754 -0.0460785 0.385983 0.193583 -0.202727 0.95991 45 48 64
-0.238728 -0.0959702 0.377192 0.0926389 -0.369855 0.92446 98 99 112
-0.245424 -0.156987 0.347552 0.0729187 -0.392949 0.916665 52 56 73
-0.257595 -0.0268556 0.397268 0.251035 -0.455878 0.853907 59 62 77
-0.276079 -0.0882066 0.379747 0.19871 -0.362314 0.910628 42 47 68
-0.288941 -0.112833 0.376457 0.354789 -0.312615 0.881134 79 84 102
0.268488 0.431066 0.113011 -0.315831 0.696863 0.643919 175 172 178
0.317091 0.331489 0.142156 0.538704 0.160244 0.827115 48 100 181
0.272438 0.423245 0.124679 0.0655954 0.644105 0.762119 173 169 174
0.327745 0.235173 0.138834 0.769502 0.0271051 0.638069 163 164 177
0.365333 0.0343071 0.0646 0.376923 0.00169617 0.926243 165 169 185
0.390799 -0.059772 0.0275115 0.0472858 -0.464687 0.884211 141 148 191
0.369871 -0.0410813 0.0238223 -0.626406 -0.311627 0.714496 157 159 170
0.431013 -0.333652 -0.0624271 0.331507 -0.353145 0.874867 107 123 166
0.412889 -0.271048 -0.0343719 0.34351 -0.327106 0.880342 147 154 176
0.425343 -0.406604 -0.10261 0.204045 -0.31441 0.927099 144 149 167
0.409909 -0.536694 -0.174938 0.366274 -0.200428 0.908665 111 109 116
0.27603 -0.102334 0.201386 0.822171 -0.0544086 0.566635 163 171 189
0.180426 0.194258 0.236059 0.297379 0.604666 0.738881 141 146 164
0.191894 0.167074 0.24768 0.416461 0.578682 0.701204 143 150 172
0.165706 0.210744 0.211708 0.349969 0.792054 0.500172 142 144 156
0.220665 0.0488936 0.265484 0.695695 0.0177614 0.718118 122 129 149
0.33867 -0.498464 0.0648301 0.775045 -0.0329601 0.631046 153 164 187
0.138876 0.204194 0.228675 0.171722 0.871076 0.460151 192 193 206
0.163315 0.0916836 0.289127 0.635366 -0.183008 0.750212 68 77 98
0.100233 0.218973 0.244245 0.385677 0.758325 0.525544 166 171 187
0.180672 -0.0913718 0.251859 0.321255 -0.308219 0.895431 125 131 149
0.230876 -0.364342 0.160018 0.280154 -0.303742 0.910634 123 129 149
0.260203 -0.531275 0.103845 0.166568 -0.362197 0.917098 121 130 154
0.279731 -0.606768 0.0832211 0.204131 0.415008 0.886623 140 146 168
0.233078 -0.406244 0.147224 0.337843 -0.308486 0.889212 127 134 154
0.238802 -0.466605 0.12295 0.3897 -0.216368 0.895164 145 150 167
0.206878 -0.471376 0.137106 0.391544 -0.207381 0.896485 146 151 168
-0.0110921 0.290113 0.178211 0.29821 0.886804 0.353058 173 177 191
0.148344 -0.275546 0.216378 0.469905 -0.156596 0.868716 120 126 144
0.0838342 0.0469799 0.323555 0.547214 -0.141032 0.825026 125 132 149
0.113551 -0.115292 0.276791 0.36738 -0.201641 0.90795 125 129 147
0.168754 -0.385543 0.177243 0.49716 -0.178604 0.849077 129 134 153
0.204518 -0.573922 0.104937 0.369616 -0.316996 0.87344 121 129 151
0.0718553 0.0431846 0.33148 0.73221 -0.0735771 0.677093 99 106 124
-0.0463053 0.296726 0.20603 0.216512 0.884939 0.412318 192 195 208
-0.0402544 0.289717 0.229653 0.524861 0.71123 0.467624 191 195 208
0.0751747 -0.0658524 0.312885 0.485082 -0.193845 0.852713 134 140 157
0.10325 -0.228917 0.258218 0.546759 -0.16814 0.820235 140 144 162
-0.0173422 0.240824 0.285147 0.398803 0.761069 0.511596 193 197 212
0.140557 -0.52378 0.16142 0.355234 -0.246439 0.901707 108 118 142
0.1326 -0.577416 0.144262 0.375709 -0.238121 0.895623 85 94 120
0.017939 0.0385707 0.359772 0.046523 -0.482593 0.874608 102 108 127
0.126179 -0.68089 0.117146 0.232967 -0.308354 0.922304 98 101 125
0.015669 -0.0131533 0.345559 0.275215 -0.235797 0.932018 127 127 138
0.0346895 -0.142988 0.304871 0.475821 -0.24462 0.844841 93 100 127
-0.00817996 0.0924561 0.377762 0.335346 0.00396712 0.942086 99 107 128
0.0892524 -0.50241 0.183026 0.264865 -0.277845 0.92339 55 66 44
0.067634 -0.413608 0.213646 0.274273 -0.20523 0.939497 15 19 92
-0.000673577 -0.0263175 0.351012 0.327609 -0.226033 0.917378 68 36 33
0.00697737 -0.0763637 0.335462 0.353069 -0.23547 0.905481 10 21 111
0.105956 -0.685736 0.121657 0.342683 -0.301019 0.889919 40 33 65
0.0290026 -0.309597 0.253774 0.190468 -0.265137 0.945212 143 144 158
-0.04386 0.0965884 0.388941 0.239099 0.083733 0.967378 29 63 130
-0.0855987 0.211022 0.350984 0.325429 0.627431 0.707408 83 89 87
-0.0414173 -0.019918 0.36391 0.355361 -0.28021 0.891741 57 45 33
-0.0626614 0.0758999 0.392062 0.273702 0.0818181 0.958328 30 39 62
-0.0739721 0.0930333 0.397596 0.2708 0.0605304 0.960731 29 61 127
-0.0226381 -0.303778 0.269116 0.17687 -0.262186 0.94867 27 33 73
-0.0716432 0.0747861 0.396331 0.289596 -0.0944415 0.952479 23 38 54
-0.108304 0.185166 0.389573 0.444392 0.42515 0.788519 149 156 176
-0.053802 -0.18238 0.315687 0.20692 -0.398867 0.893359 17 24 111
-0.0904991 0.0377555 0.397446 0.242183 -0.255226 0.936059 42 42 50
0.00498275 -0.762155 0.118092 0.126791 -0.0986085 0.987016 121 122 130
-0.169921 0.26806 0.309541 0.168141 0.844972 0.50769 145 162 134
-0.103205 0.0841425 0.407606 0.195816 -0.129165 0.972097 10 23 102
-0.0364877 -0.685245 0.144771 -0.0820688 -0.27368 0.958313 120 114 112
-0.166147 0.212753 0.38492 0.0890393 0.771482 0.629991 127 129 144
-0.0797961 -0.479908 0.220291 0.176532 -0.293406 0.939548 72 72 82
-0.181317 0.228501 0.367012 0.0904098 0.790717 0.605468 168 175 178
-0.0689159 -0.708492 0.134768 0.0422041 -0.296982 0.95395 34 44 68
-0.0869289 -0.52804 0.205789 0.113242 -0.219438 0.969033 130 128 139
-0.10986 -0.259234 0.301624 0.126548 -0.337787 0.932676 109 116 99
-0.0996354 -0.449413 0.233554 0.119727 -0.339586 0.932924 51 33 68
-0.080264 -0.818733 0.0945952 0.373943 -0.288158 0.88155 89 90 108
-0.145372 -0.158571 0.321295 0.133695 -0.279607 0.950761 114 114 121
-0.285981 0.322949 0.244542 0.264557 0.901172 0.343365 182 185 197
-0.166459 -0.0542252 0.367635 0.261792 0.0794616 0.961848 48 51 70
-0.103099 -0.869472 0.0913636 0.0932904 -0.010273 0.995585 20 22 28
-0.139321 -0.451746 0.235789 0.100518 -0.361584 0.926905 20 27 99
-0.125849 -0.635541 0.165661 0.230873 -0.334526 0.913668 32 32 73
-0.258079 0.263501 0.345837 0.279713 0.827142 0.487439 164 163 178
-0.193233 0.12813 0.43261 0.438911 0.144823 0.886783 23 35 136
-0.139612 -0.587552 0.195755 0.139882 -0.322705 0.936106 19 27 105
-0.293027 0.307016 0.288814 0.138476 0.910162 0.390421 157 158 169
-0.274809 0.285591 0.319752 0.459798 0.806392 0.37191 193 194 206
-0.247766 0.239125 0.380688 0.55729 0.647142 0.520225 180 186 209
-0.227452 0.179103 0.425387 0.475437 0.552696 0.68446 171 173 187
-0.176647 -0.341577 0.281049 0.0755132 -0.332758 0.939984 38 32 68
-0.151176 -0.768367 0.128772 0.166327 -0.299211 0.939579 44 48 67
-0.192359 -0.175565 0.324318 0.178583 -0.234207 0.955644 98 102 117
-0.163454 -0.630292 0.173044 -0.315961 -0.154473 0.936113 131 130 143
-0.215618 -0.0265501 0.377422 0.106745 -0.488469 0.866027 59 64 83
-0.334492 0.313003 0.278706 -0.0601144 0.863079 0.501478 175 174 182
-0.181381 -0.686031 0.158908 0.18894 -0.319437 0.928581 18 18 22
-0.175386 -0.744769 0.139258 0.048831 -0.271885 0.96109 101 106 127
-0.174421 -0.780534 0.126108 0.417173 -0.268274 0.86833 88 95 118
-0.282057 -0.149564 0.357597 0.192212 -0.384366 0.902949 71 77 94
0.313214 0.238785 0.145096 0.244891 -0.138096 0.959666 141 139 139
0.365395 -0.0586109 0.034568 0.307046 -0.267036 0.913463 151 151 158
0.402234 -0.26689 -0.0385668 0.0961395 -0.483935 0.869807 145 148 162
0.413198 -0.389112 -0.0899366 0.37179 -0.351986 0.858998 142 144 156
0.264275 -0.0405589 0.217745 0.839708 0.024884 0.542468 140 150 170
0.183956 0.177279 0.250787 0.479393 0.643418 0.596821 151 154 169
0.225424 -0.0653138 0.240692 0.267699 -0.195747 0.943409 148 148 161
0.254299 -0.303878 0.167446 0.230977 -0.291975 0.928116 148 150 164
0.0904819 0.198593 0.289111 0.547661 0.392013 0.739184 162 170 188
0.112272 0.138617 0.318523 0.49963 0.181516 0.847007 192 196 208
0.175571 -0.0757006 0.269707 0.76482 -0.218788 0.605957 125 129 147
0.172794 -0.165884 0.235421 0.401736 -0.130674 0.906384 146 149 163
0.197038 -0.240166 0.206042 0.608612 -0.303599 0.733088 123 129 148
0.221807 -0.38936 0.159825 0.61873 -0.302129 0.725183 125 130 149
0.248266 -0.553301 0.0917407 0.281276 -0.342991 0.896237 115 124 148
0.231263 -0.481574 0.124928 0.431666 -0.182981 0.88328 124 128 151
0.24409 -0.519683 0.118785 0.19284 0.070603 0.978687 118 126 150
0.11113 0.10739 0.334151 0.717204 0.103352 0.689157 114 127 154
0.152577 -0.242507 0.215856 0.700614 -0.244339 0.670401 124 129 148
0.161338 -0.251193 0.214539 0.314011 -0.377097 0.871318 124 129 148
0.179077 -0.399408 0.168716 0.588083 -0.334522 0.736379 128 132 151
0.0230146 0.230759 0.285981 0.00250345 0.761782 0.647829 169 175 193
0.0306933 0.205035 0.306882 0.403244 0.643763 0.650356 168 175 192
0.0999166 -0.179725 0.271465 0.507154 -0.208717 0.836201 148 150 165
0.156938 -0.492923 0.161418 0.486398 -0.245574 0.838517 147 150 167
-0.0258364 0.238419 0.292886 0.24825 0.814474 0.524408 196 198 211
0.0212965 0.0949453 0.372639 -0.101125 0.240003 0.965491 80 85 104
0.0492396 -0.360621 0.232896 0.245656 -0.305829 0.919848 143 143 157
-0.0460587 0.157507 0.374782 0.422137 0.375154 0.825264 19 35 149
0.0235613 -0.241469 0.277072 0.223393 -0.379018 0.89802 8 19 105
-0.109721 0.216838 0.356556 0.370943 0.671873 0.641084 171 183 192
-0.0795137 0.101188 0.399811 0.304388 -0.114876 0.945595 24 54 138
-0.0673407 0.0663263 0.391406 0.275184 -0.252349 0.927682 27 54 48
-0.0947878 0.170736 0.388777 0.400229 0.389341 0.829596 141 136 151
-0.1462 0.254469 0.321243 0.18442 0.784927 0.591506 62 111 70
0.00655791 -0.667199 0.147774 0.150075 -0.319095 0.935765 81 63 45
-0.071418 -0.0213802 0.370768 0.146888 -0.353471 0.923841 150 150 152
-0.146415 0.236778 0.347809 0.215708 0.814664 0.538325 125 146 147
-0.130151 0.181522 0.404442 0.30775 0.325179 0.894175 88 95 117
-0.124614 0.149671 0.408583 0.293733 0.270386 0.916849 137 141 174
-0.100916 -0.00637314 0.385179 0.211995 -0.266233 0.940308 35 33 84
-0.193221 0.258512 0.329926 0.0990745 0.78538 0.611033 82 65 71
-0.0823118 -0.279464 0.289445 0.24484 -0.290261 0.925096 30 35 66
-0.229466 0.298039 0.274788 0.191843 0.881812 0.430817 22 37 146
-0.119679 0.04137 0.403219 0.224358 -0.0490192 0.973273 13 23 113
-0.161102 -0.161241 0.322796 0.243183 -0.373721 0.895095 113 114 126
-0.147086 -0.284053 0.295523 0.134642 -0.224108 0.965219 34 48 42
-0.220975 0.212538 0.392832 0.0164228 0.63289 0.774068 37 38 122
-0.19548 0.153002 0.426537 0.340814 0.288051 0.894914 16 28 130
-0.178994 0.0370978 0.419527 0.571404 -0.210467 0.793222 13 22 106
-0.178117 -0.0561057 0.372706 0.291217 -0.0168605 0.956508 40 47 70
-0.281967 0.284063 0.330506 0.451314 0.872067 0.189248 186 186 196
-0.176615 -0.458514 0.235857 -0.118299 -0.280337 0.952584 130 135 155
-0.210722 0.0307802 0.433137 0.270012 -0.402318 0.874776 147 147 155
-0.218246 -0.252777 0.317394 0.179218 -0.426554 0.886528 147 148 157
-0.244067 -0.0732834 0.381741 -0.0472698 -0.147517 0.987929 52 55 73
0.30692 0.247395 0.145725 0.129061 -0.1849 0.974246 150 147 146
0.419933 -0.28814 -0.0552671 0.412276 -0.197538 0.889386 148 152 179
0.395957 -0.284437 -0.0517249 -0.196467 -0.114821 0.973764 145 146 156
0.367065 -0.384276 -0.0811085 0.307291 -0.288384 0.906867 110 112 123
0.188197 0.254129 0.0941351 0.256608 0.857515 0.445894 169 167 171
0.247386 0.00714427 0.238941 0.838046 0.13993 0.52735 152 163 183
0.133643 0.21909 0.212184 -0.206412 0.67283 0.710419 179 179 190
0.0900128 0.252816 0.178672 0.498433 0.821454 0.277091 154 158 173
0.168119 -0.178246 0.236401 0.37574 -0.136945 0.916551 82 88 107
0.17464 -0.234119 0.217655 0.724213 -0.219605 0.653672 124 128 148
0.201395 -0.412068 0.154971 0.358773 -0.251721 0.898843 129 135 153
0.042409 0.219188 0.279233 0.348462 0.814486 0.463881 174 181 199
0.0694343 0.0654886 0.334842 0.728742 -0.0864585 0.679308 114 121 140
-0.0343505 0.241312 0.298355 0.275877 0.760525 0.587787 190 193 207
-0.0283726 0.223697 0.318065 0.286271 0.783508 0.55151 167 172 189
0.0347197 -0.0200338 0.341728 0.169679 -0.232456 0.957691 120 123 139
0.037651 -0.0391745 0.338403 0.168584 -0.412656 0.895151 124 128 146
-0.0982712 0.249323 0.311113 0.233446 0.786244 0.572122 133 138 146
-0.0191074 0.00388194 0.364537 0.255329 -0.230642 0.938941 71 68 47
-0.0474585 0.0684424 0.385818 0.275912 -0.130594 0.95227 23 53 44
-0.075389 -0.0929273 0.350496 0.262148 -0.125407 0.956844 24 29 96
-0.140594 0.197212 0.403506 0.181579 0.405282 0.895978 98 104 124
-0.237138 0.295725 0.281491 0.109443 0.860049 0.498335 31 45 115
-0.158042 0.153289 0.416751 0.26211 0.279793 0.923587 145 145 160
-0.140129 -0.011234 0.388073 0.100605 -0.49348 0.863919 127 127 138
-0.104286 -0.837959 0.092656 0.27057 -0.131145 0.953726 82 86 104
-0.261975 0.249696 0.392746 0.647496 0.714322 0.265505 182 181 190
-0.301459 0.168406 0.420451 0.462163 0.401967 0.79046 164 158 159
0.263415 0.411399 0.13171 0.199574 0.19835 0.959598 173 164 162
0.354486 0.120963 0.101114 0.770238 -0.0960135 0.630488 166 169 184
0.203595 0.216646 0.138882 0.665624 0.222595 0.712317 181 182 192
0.254434 0.0871641 0.229284 0.811518 0.182489 0.555101 186 192 209
0.141836 0.150618 0.286556 0.488365 0.52176 0.699476 189 192 205
0.295637 -0.513786 0.0904199 0.275554 -0.31489 0.908248 132 135 154
0.0579479 0.232946 0.27471 0.177367 0.667869 0.722835 181 185 203
0.189753 -0.311568 0.191916 0.364463 -0.181404 0.913377 146 150 166
0.0239584 0.0200796 0.352267 0.0473072 -0.238868 0.969899 118 123 139
-0.129913 0.261049 0.30693 0.159115 0.791668 0.589868 94 125 73
0.0196155 -0.859725 0.0827593 0.375087 -0.340954 0.86201 19 26 104
-0.101736 0.0361742 0.400547 0.306713 -0.226419 0.924479 36 40 101
-0.0942755 -0.177601 0.330442 0.232731 -0.252245 0.939259 40 36 58
-0.0717076 -0.319481 0.273751 0.270213 -0.264415 0.92578 45 46 57
-0.1118 -0.428883 0.243588 0.165941 -0.314666 0.934585 41 35 77
-0.152213 -0.227935 0.319262 0.142405 -0.322388 0.935835 28 44 63
-0.103521 -0.741648 0.135157 0.0811558 -0.152487 0.984967 62 66 89
-0.191298 -0.147116 0.339997 0.282371 -0.473272 0.834434 47 51 71
-0.318134 -0.0502475 0.373264 -0.0466307 -0.410836 0.910516 18 18 20
0.271638 0.387068 0.146085 0.388182 0.444879 0.807092 155 150 148
0.26322 -0.145703 0.206928 0.57869 -0.148989 0.801823 127 135 157
0.196654 -0.258927 0.202129 0.302419 -0.238883 0.922756 117 124 143
0.114527 -0.201587 0.256931 0.589998 -0.209084 0.779863 108 115 133
0.164896 -0.432284 0.1676 0.667623 -0.0285118 0.743953 125 130 152
-0.0773304 0.302992 0.209189 0.394123 0.824256 0.406533 198 199 211
0.0906149 -0.316242 0.231188 0.251658 -0.234588 0.938955 108 113 132
0.0683523 -0.606612 0.15555 0.29628 -0.250812 0.921581 26 72 53
-0.135005 0.18931 0.403358 0.390307 0.300893 0.870129 86 93 115
-0.204796 -0.118014 0.364322 0.200212 -0.429987 0.880356 98 81 91
-0.300628 0.268015 0.342109 0.381079 0.881547 0.278664 187 185 193
-0.236472 0.0680815 0.449207 0.290953 -0.134063 0.947298 154 153 158
-0.269166 0.172239 0.439026 0.823689 0.438993 0.358917 162 160 164
0.20349 0.15923 0.246108 0.465557 0.582026 0.66671 161 169 189
0.0893024 -0.0473898 0.302647 0.756388 -0.00978605 0.65405 104 111 128
0.122114 -0.310715 0.227364 0.595033 -0.178439 0.783643 146 150 166
-0.0549367 0.259598 0.261613 0.420851 0.835548 0.353192 199 201 213
0.0516252 -0.570517 0.170663 0.0298927 -0.15057 0.988147 35 72 46
-0.206232 0.268633 0.319288 0.124514 0.834273 0.537108 94 93 104
-0.139052 0.0878634 0.418265 0.296656 0.087224 0.950993 25 24 65
-0.166901 -0.724573 0.143853 0.0731224 -0.203108 0.976422 83 87 108
-0.242841 0.176596 0.427634 0.0534461 0.360574 0.931198 167 166 173
-0.2706 0.29385 0.301511 0.315282 0.762796 0.564571 176 184 182
-0.301679 -0.146829 0.360918 0.052451 -0.419681 0.906155 18 18 23
