ply
format ascii 1.0
element vertex 224
property float x
property float y
property float z
property float nx
property float ny
property float nz
property uchar diffuse_red
property uchar diffuse_green
property uchar diffuse_blue
end_header
0.39139 -0.155373 -0.254004 0.687901 0.396301 -0.608061 153 146 151
0.388291 -0.100145 -0.226442 0.687976 0.400897 -0.604955 29 38 41
0.390362 0.0568411 -0.100267 0.91059 0.348715 -0.221863 183 185 200
0.365885 0.0118958 -0.192334 0.693167 0.353818 -0.627959 45 32 44
0.34354 0.250882 -0.0623454 0.894453 0.335093 -0.296085 207 210 214
0.318032 0.208619 -0.127077 0.692609 0.381883 -0.61193 29 44 173
0.299066 0.24161 -0.128475 0.587767 0.407792 -0.698739 24 39 163
0.183147 -0.00313094 -0.301815 0.603457 0.363239 -0.709858 179 170 172
0.0828699 -0.252728 -0.416695 -0.158534 0.738042 -0.655867 127 109 106
0.29054 0.315771 -0.0905742 0.490924 0.589185 -0.641759 198 196 196
0.274286 0.338978 -0.0840525 0.248129 0.57299 -0.781098 108 131 105
0.165449 0.098363 -0.2607 0.591576 0.423835 -0.685858 170 162 167
0.169268 0.109092 -0.250335 0.546655 0.440908 -0.711877 150 142 146
0.27164 0.389008 -0.0502922 0.501273 0.658286 -0.561591 49 56 119
0.148429 0.158967 -0.23944 0.616135 0.409616 -0.672749 175 168 171
0.0884552 0.259419 -0.213283 0.0308349 0.681867 -0.730825 169 162 169
0.1287 0.200713 0.242533 0.546981 0.682387 0.484932 152 155 168
0.122693 0.209527 0.232264 0.544336 0.70277 0.458055 129 133 146
0.116239 0.218348 0.221417 0.525067 0.731686 0.434672 100 103 117
0.110341 0.227068 0.207204 0.67651 0.692658 0.250118 101 100 112
-0.0250588 0.0693737 -0.285438 0.0290311 0.5651 -0.824511 169 153 150
0.107504 0.233715 0.196819 0.594415 0.740655 0.313211 101 103 115
0.106627 0.222496 0.227211 0.480931 0.752246 0.450369 149 155 170
0.102103 0.226558 0.216826 0.469651 0.797004 0.379754 153 159 174
0.0986931 0.232527 0.206112 0.454275 0.803877 0.383948 154 159 174
0.0925768 0.246168 0.186531 0.456087 0.820424 0.344804 151 156 171
0.0900128 0.252816 0.178672 0.498433 0.821454 0.277091 154 158 173
0.0882678 0.260099 0.15159 0.263617 0.895411 0.358811 124 128 142
0.0494427 0.311941 -0.0984438 -0.219851 0.974789 -0.0381106 191 185 191
0.0675281 0.301896 0.0333788 0.315825 0.942681 0.107741 141 139 148
0.0674196 0.279609 0.133465 0.370107 0.882828 0.289199 178 182 196
0.0610002 0.30664 0.00798897 0.213074 0.971649 0.102461 119 117 126
0.0503256 0.31005 0.00437517 0.28864 0.952569 0.096437 131 133 143
0.0344815 0.315957 -0.0751015 0.238615 0.970709 -0.0280447 129 130 141
0.0146618 0.311421 -0.122485 0.129411 0.974202 -0.184889 165 166 177
0.0244021 0.209818 0.301831 0.237454 0.771088 0.590796 166 172 190
0.0137175 0.216015 0.301731 0.245851 0.738459 0.627883 153 161 180
0.000803412 0.235995 0.271219 0.497739 0.74938 0.436675 153 162 181
-0.0224328 0.318798 -0.120363 0.10414 0.977338 -0.184297 167 167 179
-0.0087716 0.258743 0.241574 0.460215 0.796527 0.392106 154 161 180
-0.0524685 0.330848 0.0793861 0.380417 0.920298 0.0912916 170 172 186
-0.0902931 0.330901 -0.106601 0.117714 0.979028 -0.166275 165 163 174
-0.0813496 0.223916 0.334614 0.301783 0.702337 0.644709 80 81 96
-0.109721 0.216838 0.356556 0.370943 0.671873 0.641084 171 183 192
-0.119525 0.337914 -0.107321 0.315207 0.930611 -0.186033 185 183 192
-0.111465 0.236609 0.33463 0.230015 0.76001 0.607846 61 119 82
-0.107043 0.326543 0.185352 0.121779 0.932938 0.338816 176 177 191
-0.144275 0.334994 -0.127143 -0.0501595 0.938634 -0.341247 125 124 137
-0.11878 0.341232 0.141778 0.240176 0.938782 0.24699 178 177 189
-0.112009 0.334523 0.164501 0.194248 0.94403 0.266598 194 194 204
-0.178877 0.319001 -0.152368 -0.0517575 0.826761 -0.560167 35 43 82
-0.167841 0.220335 0.37838 0.0372277 0.801102 0.597369 133 134 149
-0.206254 0.28947 -0.182975 -0.106303 0.676403 -0.728821 53 49 80
-0.197408 0.324021 -0.142758 -0.0132987 0.830069 -0.557503 134 145 126
-0.150945 0.349791 0.131219 0.132165 0.9688 0.209665 171 170 181
-0.169921 0.26806 0.309541 0.168141 0.844972 0.50769 145 162 134
-0.217795 0.337166 -0.110584 0.223926 0.887745 -0.4022 42 86 58
-0.211085 0.35336 -0.0407204 0.0503768 0.998298 -0.0294009 79 60 66
-0.180142 0.340414 0.177683 0.104 0.968794 0.224992 190 188 197
-0.223503 0.346683 -0.0941213 0.18091 0.944701 -0.273517 144 154 142
-0.216205 0.351443 -0.0622167 0.195982 0.978614 -0.0625063 137 157 135
-0.204785 0.355236 -0.00868054 0.00668116 0.998356 -0.0569305 34 43 146
-0.250403 0.326039 -0.133896 -0.0108719 0.795194 -0.606257 33 50 36
-0.213882 0.356555 0.0141332 0.0617131 0.998061 -0.00814349 26 32 90
-0.242299 0.352661 -0.0807714 0.109939 0.966777 -0.230772 122 126 142
-0.233356 0.356205 -0.0584257 0.244463 0.969655 -0.00262709 138 142 161
-0.233183 0.355024 -0.00760989 0.0371745 0.999284 -0.00699594 24 36 139
-0.244037 0.268316 0.330746 0.144045 0.820529 0.553156 78 75 95
-0.25552 0.257513 0.35481 0.329421 0.807958 0.488554 170 173 191
-0.259098 0.355855 0.0451318 -0.00919279 0.999947 -0.00445482 121 138 56
-0.267574 0.286759 0.311564 0.391254 0.819718 0.41831 178 185 180
-0.272023 0.355959 0.03109 -0.0281728 0.999298 -0.0247069 121 138 56
-0.26796 0.304473 0.275155 0.314107 0.887042 0.338368 139 158 105
-0.28727 0.354844 -0.0350133 -0.0958852 0.995116 -0.02344 161 156 163
-0.348436 0.293657 -0.154608 -0.170726 0.661727 -0.730047 25 42 126
-0.275675 0.319172 0.246529 0.269149 0.912228 0.308868 165 173 152
-0.322281 0.332341 -0.109785 -0.178731 0.877791 -0.444451 37 33 72
-0.333446 0.338673 -0.0941488 -0.187932 0.917842 -0.34964 20 34 146
-0.316993 0.355791 0.000533822 0.03639 0.998728 -0.034904 113 127 64
-0.305438 0.315465 0.27813 0.0438025 0.868561 0.493642 181 181 192
-0.321098 0.336628 0.22721 -0.0134122 0.960384 0.278358 147 145 158
-0.323483 0.340603 0.216912 -0.0486013 0.93983 0.338167 155 154 167
-0.336744 0.359116 0.0498808 0.266009 0.962813 -0.0472329 187 187 172
-0.334176 0.358566 0.0856954 0.108563 0.993828 0.0228341 191 189 194
-0.3442 0.357028 0.134571 -0.0397162 0.977254 0.208322 182 179 187
0.36051 0.25506 -0.0036875 0.936124 0.313663 -0.159019 204 206 220
0.340352 0.302286 -0.0211353 0.919321 0.316852 -0.233356 66 65 99
0.293879 0.231698 -0.139167 0.403622 0.450285 -0.79645 50 53 154
0.313245 0.313798 -0.0695437 0.641835 0.603733 -0.472816 83 98 89
0.324763 0.345178 -0.0224179 0.944463 0.285553 -0.162635 148 171 139
0.193125 0.0517354 -0.264838 0.610502 0.375332 -0.697433 212 202 201
0.174143 0.0847839 -0.26138 0.561279 0.45026 -0.69443 145 137 142
0.281646 0.345914 -0.0755263 0.420686 0.567618 -0.707695 58 114 77
0.297529 0.386651 -0.0177109 0.9408 0.328322 -0.0842704 26 31 173
0.29764 0.423476 0.0389838 0.762093 0.644922 -0.0573704 30 32 113
0.164151 0.168995 -0.219228 0.592701 0.449926 -0.668035 161 151 153
0.253363 0.400489 -0.0389876 -0.169511 0.695241 -0.698503 183 167 165
0.173164 0.283652 0.0769258 0.428943 0.729136 0.533262 146 141 140
0.138854 0.289975 0.0753701 0.170521 0.984753 0.0343974 145 142 150
0.081141 0.311488 -0.108931 -0.168394 0.972391 -0.161557 157 149 154
0.0500947 0.30045 -0.149847 0.176474 0.953609 -0.243899 204 199 204
0.0780109 0.29865 0.0362128 0.269148 0.946284 0.179182 189 186 193
0.00670675 0.240552 -0.225551 0.110606 0.529276 -0.841209 169 156 153
0.0746685 0.274089 0.142674 0.537194 0.828305 0.159159 180 183 195
0.0214601 0.307279 -0.140655 0.141206 0.970826 -0.193803 105 104 116
0.0406052 0.307438 0.0492794 0.289164 0.946138 0.145622 177 177 189
0.0395701 0.299242 0.106793 0.283984 0.917181 0.279522 200 201 211
-0.0585918 0.19198 -0.234738 0.377911 0.431696 -0.819037 168 153 148
0.0281712 0.211098 0.293537 0.353419 0.734364 0.579487 163 168 186
0.00580661 0.314729 -0.115954 0.0942601 0.955422 -0.279793 170 168 178
0.030907 0.287007 0.1468 0.337429 0.851706 0.400922 180 183 197
0.020235 0.303654 0.114776 0.305044 0.919424 0.248209 200 200 211
-0.0428061 0.273709 -0.21695 0.469753 0.539698 -0.698611 135 124 129
0.000271854 0.308199 0.121301 0.314629 0.911349 0.265427 200 200 211
-0.010092 0.259113 0.206921 0.827449 0.541916 0.147159 165 172 188
-0.0110921 0.290113 0.178211 0.29821 0.886804 0.353058 173 177 191
-0.0192393 0.313473 0.128125 0.322503 0.912761 0.250719 201 201 212
-0.0623954 0.324763 -0.127785 0.0930029 0.895346 -0.435552 131 128 138
-0.0719979 0.326908 -0.120711 0.117104 0.962115 -0.246212 138 138 150
-0.0841548 0.347095 0.0748048 0.574699 0.818352 -0.00464739 198 195 203
-0.0866733 0.349216 0.0614961 0.596307 0.802642 -0.0135158 199 198 206
-0.184911 0.312656 -0.161091 -0.0935277 0.828244 -0.552507 32 32 51
-0.165238 0.341484 -0.104097 -0.0681292 0.967254 -0.244495 150 137 141
-0.1462 0.254469 0.321243 0.18442 0.784927 0.591506 62 111 70
-0.146492 0.345295 0.145354 0.141622 0.969188 0.20154 191 190 199
-0.181317 0.228501 0.367012 0.0904098 0.790717 0.605468 168 175 178
-0.195731 0.265081 0.321203 0.160147 0.817373 0.553402 89 75 87
-0.257531 0.291282 -0.171941 -0.0946652 0.674443 -0.732233 160 42 29
-0.222949 0.276779 0.314042 0.518291 0.660223 0.543581 108 107 121
-0.230093 0.235103 0.373105 0.341007 0.737005 0.583556 26 40 161
-0.229328 0.354691 -0.0374645 0.0706923 0.997474 0.00688621 189 187 198
-0.322776 0.270067 -0.18023 -0.0318752 0.567315 -0.822884 35 36 101
-0.250359 0.265896 0.338328 0.281303 0.824159 0.491561 70 60 78
-0.30794 0.304218 -0.151318 0.0456066 0.765806 -0.641452 170 161 153
-0.26433 0.355433 -0.0177162 -0.00854071 0.999622 0.0261547 165 163 186
-0.273514 0.358753 -0.0604633 -0.217543 0.975381 0.0361521 124 123 136
-0.278164 0.292521 0.310332 0.259216 0.819456 0.511176 190 193 206
-0.359878 0.292233 -0.154898 0.0405898 0.607616 -0.793193 107 116 151
-0.312879 0.346699 -0.076823 0.153957 0.981083 -0.11736 153 149 173
-0.297299 0.352706 -0.0527324 -0.111469 0.990306 -0.0828654 144 136 141
-0.283136 0.351165 0.131862 -0.141527 0.989897 -0.00860386 123 138 64
-0.306763 0.355472 0.00410928 0.00443568 0.999969 -0.0064524 107 116 49
-0.320543 0.35404 -0.0208645 -0.0210469 0.988764 -0.147997 36 47 138
-0.29897 0.348381 0.159706 0.0620336 0.989984 0.126818 145 147 139
-0.302737 0.351715 0.136535 0.12479 0.99021 0.0625388 144 156 89
-0.305187 0.351636 0.125646 0.0905604 0.994566 0.0513559 139 152 79
-0.336889 0.350607 -0.0470933 0.021529 0.991441 -0.128769 31 47 153
-0.323855 0.357185 0.0378274 0.0568214 0.9982 -0.0192044 101 115 56
-0.344764 0.355993 -0.0176497 0.118374 0.977266 -0.175895 151 162 191
-0.345312 0.35878 0.0824986 -0.0535794 0.998378 0.0192374 191 187 191
-0.364602 0.355182 0.138892 -0.149627 0.953063 0.263219 180 178 185
0.350785 0.0134256 -0.206697 0.671353 0.448792 -0.589806 48 45 127
0.194185 -0.0609609 -0.322856 0.598109 0.376476 -0.707482 173 164 166
0.299564 0.258135 -0.119125 0.562355 0.472857 -0.678353 46 41 119
0.294779 0.421189 0.117825 0.762721 0.556352 0.32974 71 56 108
0.151989 0.170422 -0.229291 0.607968 0.407666 -0.68131 157 150 155
0.273172 0.425235 -0.000182504 0.618184 0.651916 -0.439152 43 57 180
0.211885 0.178909 0.224108 0.633201 0.568923 0.524769 200 205 218
0.179321 0.260439 0.110108 0.324892 0.732328 0.598449 174 174 180
0.0910787 0.20522 0.257951 0.611929 0.522042 0.59415 172 178 193
0.0912096 0.281546 0.0855429 0.517529 0.837157 0.177008 197 196 205
0.0801235 0.264511 0.169405 0.658645 0.725538 0.199455 170 172 186
0.0628201 0.271245 0.158007 0.385845 0.90958 0.154234 169 173 188
0.0369602 0.307252 0.0394836 0.173554 0.98453 0.0240802 177 178 189
-0.0146582 0.295869 -0.181575 -0.105558 0.665216 -0.739152 204 195 199
-0.00112354 0.318673 -0.0983247 0.205566 0.962457 -0.177251 170 169 180
0.00177738 0.286556 0.177647 0.334401 0.869675 0.363101 174 178 195
-0.0108634 0.312653 0.119066 0.289953 0.931874 0.218033 200 200 211
-0.0392213 0.328124 -0.0959562 0.133676 0.948405 -0.287505 184 181 188
-0.0813388 0.329087 -0.113714 0.113854 0.971966 -0.205716 153 153 167
-0.108653 0.323719 -0.155168 0.106712 0.974871 -0.19555 201 195 201
-0.0952341 0.357446 0.0628307 0.697574 0.714503 0.0536435 197 196 205
-0.128589 0.341005 -0.100321 0.204972 0.956026 -0.20976 176 175 187
-0.149217 0.343794 -0.0976198 -0.0505769 0.964886 -0.257753 150 147 157
-0.198034 0.297167 -0.175006 -0.104201 0.719302 -0.686838 45 45 72
-0.20518 0.243519 0.354512 0.142837 0.787752 0.599204 38 75 63
-0.257054 0.319391 -0.142583 -0.0778111 0.792747 -0.604564 71 95 65
-0.227097 0.29301 0.283407 0.0945037 0.89072 0.444618 21 34 128
-0.258816 0.342573 -0.107166 -0.0267389 0.899827 -0.435428 150 145 149
-0.265478 0.358133 -0.0674243 0.0152597 0.965244 -0.260904 113 113 127
-0.244054 0.341653 0.17841 0.162303 0.927108 0.337829 185 186 197
-0.261647 0.355801 0.0345053 0.0116111 0.999924 0.00411964 122 140 57
-0.276933 0.355716 -0.0317395 -0.0314192 0.998787 0.0379002 162 158 167
-0.285782 0.290674 0.317859 0.145168 0.868327 0.474273 184 185 196
-0.277029 0.353915 0.114581 -0.0725666 0.994617 0.0739645 120 138 58
-0.313654 0.356099 0.0412883 0.04599 0.998897 0.00943655 85 97 44
-0.337058 0.35737 0.119021 0.184118 0.970143 0.157872 161 157 164
0.357921 0.181068 -0.0904944 0.912277 0.295072 -0.28405 93 63 72
0.313307 0.242013 -0.114231 0.680985 0.407175 -0.60866 35 49 171
0.288784 0.358323 -0.0637499 0.704873 0.35236 -0.615627 46 89 62
0.207708 -0.0623481 -0.312695 0.57647 0.443382 -0.686364 139 130 133
0.162874 0.2618 0.130164 0.269661 0.872426 0.407623 160 162 173
0.0846413 0.246095 0.196167 0.526767 0.794439 0.302295 167 169 183
0.0368985 0.299126 -0.166398 -0.0350047 0.952874 -0.301339 207 199 202
0.0551619 0.267502 0.172353 0.335077 0.929905 0.151662 169 173 187
0.0203781 0.314804 0.0319249 0.423879 0.898179 0.116625 184 183 195
0.021974 0.274045 0.18564 0.397172 0.871383 0.288004 171 175 193
-0.0175913 0.325484 -0.0853271 0.237269 0.9333 -0.269543 183 180 188
-0.0456018 0.333466 -0.0776583 0.202839 0.930606 -0.304679 185 180 187
-0.0852171 0.300226 0.222142 0.0804164 0.760667 0.644142 202 201 212
-0.135583 0.345612 -0.0821651 0.274656 0.923946 -0.26625 173 170 180
-0.118857 0.352545 0.0430583 -0.140542 0.950126 0.278405 202 198 205
-0.140871 0.263827 0.304687 0.186392 0.827934 0.528945 81 103 57
-0.237021 0.355064 0.012848 -0.0456778 0.998927 0.00760909 23 33 121
-0.257398 0.357697 -0.0365913 0.0190456 0.986755 0.161096 154 153 166
-0.307901 0.355866 0.0233421 0.0126142 0.99992 -9.59389e-05 97 110 55
0.372434 -0.0389207 -0.209819 0.69134 0.388376 -0.609273 53 45 130
0.0652845 -0.412644 -0.454424 -0.147614 0.93572 -0.320371 157 133 128
0.192411 0.178897 0.240807 0.402247 0.647938 0.646818 146 155 176
0.13568 0.235181 -0.19084 0.49808 0.632421 -0.593261 218 207 209
0.0870648 0.290217 0.0725032 0.273344 0.947103 0.168167 201 199 207
0.0429472 0.242666 -0.216859 0.245262 0.521909 -0.81698 174 160 156
0.0728313 0.303668 0.0121329 0.215902 0.96772 0.130021 185 182 189
0.0263597 0.293899 0.136589 0.361189 0.842887 0.398852 147 151 166
-0.100945 0.316882 0.209096 0.167822 0.910206 0.378631 196 198 211
-0.163909 0.342815 -0.0935649 -0.0708316 0.966597 -0.246319 153 144 149
-0.14916 0.304438 0.246779 0.132881 0.83235 0.538086 155 159 177
-0.255687 0.357864 -0.0663714 0.132526 0.926018 -0.35345 116 118 135
0.0500485 0.282791 0.139545 0.358604 0.847341 0.391684 178 181 195
-0.0915847 0.318391 -0.1697 0.0669293 0.965977 -0.249818 181 176 184
-0.203563 0.317448 -0.151331 -0.0165243 0.775765 -0.630806 140 147 128
-0.198251 0.2714 0.312321 0.155814 0.839131 0.521135 69 64 74
-0.263897 0.355763 0.0231069 0.00965151 0.999942 -0.00465752 115 134 67
0.379995 0.0280801 -0.15126 0.889569 0.345472 -0.298858 172 170 184
