ply
format ascii 1.0
element vertex 218
property float x
property float y
property float z
property float nx
property float ny
property float nz
property uchar diffuse_red
property uchar diffuse_green
property uchar diffuse_blue
end_header
0.274219 0.442445 0.0990985 -0.0701983 0.726315 0.683768 104 108 166
0.229475 0.192553 -0.0949772 -0.18873 0.695364 -0.693433 84 63 50
0.220599 0.240098 -0.0628884 0.207607 0.747367 -0.631143 87 68 58
0.0693676 0.29483 -0.163971 -0.238754 0.866277 -0.438817 176 166 169
0.108667 0.25432 0.144132 0.462079 0.832065 0.30684 176 174 182
0.0675281 0.301896 0.0333788 0.315825 0.942681 0.107741 141 139 148
0.0911373 0.255574 0.163197 0.422999 0.842409 0.333797 128 132 146
0.0146618 0.311421 -0.122485 0.129411 0.974202 -0.184889 165 166 177
0.0674196 0.279609 0.133465 0.370107 0.882828 0.289199 178 182 196
0.0774495 0.267092 0.152008 0.473484 0.845568 0.246632 177 180 191
0.110034 0.210286 0.246094 0.120744 0.787383 0.604524 158 165 183
0.0560536 0.297273 0.0875259 0.30253 0.933675 0.191644 194 195 207
0.062617 0.289505 0.110923 0.394442 0.858234 0.328403 180 181 193
0.107054 0.193304 0.273297 0.482287 0.536493 0.692513 162 168 185
-0.0256348 0.303054 -0.182998 0.203386 0.795028 -0.571458 200 192 197
0.11349 0.156825 0.302625 0.442693 0.562711 0.698125 191 195 209
-0.0224328 0.318798 -0.120363 0.10414 0.977338 -0.184297 167 167 179
-0.050649 0.325079 -0.112089 0.207865 0.957454 -0.200187 163 163 176
-0.0170612 0.318961 0.0954105 0.299395 0.940762 0.159152 121 123 136
-0.0147414 0.293043 0.163939 0.369564 0.675762 0.637784 172 177 194
0.0334997 0.170888 0.339061 0.370551 0.583062 0.723 185 188 201
0.0162065 0.227968 0.293652 -0.0911853 0.719514 0.688466 165 171 190
0.0252701 0.194398 0.317843 0.373542 0.718452 0.586766 165 173 191
-0.0902931 0.330901 -0.106601 0.117714 0.979028 -0.166275 165 163 174
-0.0495357 0.329092 0.0907065 0.345546 0.931193 0.116096 149 152 165
-0.114154 0.329468 -0.139521 0.255269 0.946126 -0.199209 192 189 197
-0.000142933 0.201234 0.323383 0.474661 0.694501 0.540708 175 182 198
-0.00841859 0.203287 0.31601 -0.0549476 0.715886 0.696051 189 194 209
-0.15356 0.320612 -0.153623 -0.201271 0.846791 -0.492376 127 122 130
-0.163249 0.331797 -0.126118 0.0345727 0.931276 -0.36267 143 133 142
-0.15927 0.337084 -0.117811 -0.0650358 0.953115 -0.295534 153 145 151
-0.167316 0.328625 -0.136327 0.0249533 0.930638 -0.365091 109 105 138
-0.163909 0.342815 -0.0935649 -0.0708316 0.966597 -0.246319 153 144 149
-0.0490888 0.177063 0.367911 0.299867 0.505807 0.80885 40 47 110
-0.182095 0.334527 -0.120853 -0.0532174 0.934419 -0.352179 49 74 56
-0.18068 0.346113 -0.0795168 0.206237 0.938902 -0.275552 81 62 62
-0.129764 0.344546 0.138921 0.187744 0.956918 0.221496 191 190 200
-0.191396 0.345091 -0.0837292 -0.105391 0.97697 -0.185536 51 107 75
-0.101873 0.232839 0.334766 0.212047 0.745863 0.631446 100 132 107
-0.109501 0.229728 0.342101 0.271385 0.723457 0.634791 83 130 98
-0.204785 0.355236 -0.00868054 0.00668116 0.998356 -0.0569305 34 43 146
-0.216205 0.351443 -0.0622167 0.195982 0.978614 -0.0625063 137 157 135
-0.131315 0.243976 0.333147 0.230881 0.788569 0.569958 49 94 70
-0.1732 0.336746 0.190583 0.137068 0.944852 0.297436 172 170 181
-0.213929 0.356563 0.0142179 0.0565089 0.998359 -0.00929386 26 32 90
-0.259894 0.355416 0.0035062 0.01788 0.999807 0.00822994 27 37 113
-0.251067 0.356018 0.0378679 0.0159982 0.999865 -0.00371531 118 135 64
-0.181502 0.254031 0.33463 0.150565 0.81163 0.564435 37 64 52
-0.274278 0.355687 0.019551 0.00246092 0.999768 -0.0214011 116 132 58
-0.280641 0.355459 -0.003301 -0.00426438 0.999494 -0.031525 62 65 59
-0.20518 0.243519 0.354512 0.142837 0.787752 0.599204 38 75 63
-0.20877 0.274494 0.310375 0.133559 0.83567 0.532746 165 167 180
-0.286512 0.355698 0.0299736 -0.0228548 0.999607 0.0162435 112 129 58
-0.224818 0.287754 0.291964 0.117203 0.86244 0.492403 35 45 121
-0.32689 0.3408 -0.0896783 -0.145688 0.948887 -0.279978 24 37 145
-0.228618 0.259263 0.340545 0.141918 0.752031 0.643667 168 172 191
-0.29816 0.354597 0.0660933 -0.0106728 0.997526 0.0694929 118 137 55
-0.316993 0.355791 0.000533822 0.03639 0.998728 -0.034904 113 127 64
-0.247466 0.29859 0.278871 0.16608 0.859291 0.483774 100 124 76
-0.242751 0.287538 0.297598 0.149423 0.871914 0.466304 42 51 80
-0.274562 0.330737 0.218677 0.121337 0.896624 0.425842 125 130 150
-0.262935 0.31133 0.25765 0.158101 0.925048 0.345386 120 140 67
-0.245225 0.253159 0.356062 0.286302 0.793129 0.537566 68 67 109
-0.228616 0.187704 0.421407 0.525585 0.630239 0.571453 172 176 192
-0.282428 0.328254 0.225696 0.326445 0.860009 0.392196 147 150 165
-0.298889 0.344567 0.203786 0.00276455 0.953192 0.302354 154 155 171
-0.282993 0.31782 0.25534 0.338275 0.881104 0.330493 186 190 199
-0.34702 0.35993 0.0207875 0.189312 0.980553 -0.0517406 190 188 189
-0.336744 0.359116 0.0498808 0.266009 0.962813 -0.0472329 187 187 172
-0.278164 0.292521 0.310332 0.259216 0.819456 0.511176 190 193 206
-0.331351 0.358362 0.0965717 0.103684 0.993907 0.0374099 185 183 188
-0.306675 0.329693 0.240223 0.154103 0.937458 0.31213 82 80 90
-0.350462 0.323018 0.255436 -0.149777 0.893733 0.422856 61 58 61
-0.387092 0.345716 0.110087 -0.337055 0.838181 -0.428773 169 165 171
-0.342429 0.302142 0.298697 -0.216606 0.800272 0.559148 173 169 173
-0.379245 0.346567 0.166102 -0.26627 0.932893 0.242508 57 51 51
-0.387848 0.35046 0.13156 -0.302975 0.93851 0.165543 168 163 168
0.269846 0.422708 -0.0113099 0.52794 0.768542 -0.361418 31 43 173
0.26193 0.450366 0.0600627 -0.463105 0.8661 0.18816 128 128 182
0.271696 0.449589 0.0911581 -0.127719 0.738795 0.661717 121 124 188
0.0924776 0.315527 -0.0758127 -0.0943559 0.994808 -0.0381307 156 150 157
0.0716142 0.30066 -0.151426 -0.086801 0.923048 -0.374762 171 161 163
0.0214601 0.307279 -0.140655 0.141206 0.970826 -0.193803 105 104 116
0.0344815 0.315957 -0.0751015 0.238615 0.970709 -0.0280447 129 130 141
0.0503256 0.31005 0.00437517 0.28864 0.952569 0.096437 131 133 143
0.0592404 0.29353 0.0992565 0.311697 0.915706 0.253628 201 200 211
0.0746685 0.274089 0.142674 0.537194 0.828305 0.159159 180 183 195
0.018418 0.32859 -0.05207 0.465637 0.884976 -0.000206692 176 175 185
-0.00375356 0.304139 -0.158938 0.150729 0.954858 -0.255984 202 196 202
0.0435048 0.305871 0.0596268 0.290411 0.948062 0.129767 172 174 186
-0.0129689 0.307059 -0.151819 0.121945 0.901473 -0.415303 205 198 203
-0.00714427 0.311858 -0.129662 0.205456 0.976907 -0.0586645 147 150 164
-0.0203002 0.320699 -0.107564 0.195163 0.94467 -0.263648 177 175 184
-0.0379323 0.313136 -0.147948 0.134128 0.926568 -0.351401 198 193 198
0.0756935 0.165783 0.320498 0.388546 0.68281 0.61871 188 192 205
0.0674872 0.16312 0.328052 0.389941 0.523585 0.757499 188 191 204
-0.0670067 0.307854 -0.190302 0.138132 0.882322 -0.44992 150 148 160
0.0512012 0.167069 0.334524 0.410466 0.52355 0.746601 187 190 204
0.0432264 0.165614 0.342386 0.377524 0.640665 0.668598 185 187 200
0.0230146 0.230759 0.285981 0.00250345 0.761782 0.647829 169 175 193
0.0300267 0.203603 0.308311 0.498049 0.647563 0.576724 164 170 188
0.0236977 0.168557 0.347277 0.386103 0.56169 0.73173 192 194 207
-0.0149264 0.266666 0.233627 0.644425 0.693433 0.322284 135 140 156
-0.144275 0.334994 -0.127143 -0.0501595 0.938634 -0.341247 125 124 137
-0.0495268 0.207306 0.344771 0.0323796 0.580991 0.813266 117 122 140
-0.170869 0.335232 -0.118635 0.0832846 0.932261 -0.352071 112 82 85
-0.107043 0.326543 0.185352 0.121779 0.932938 0.338816 176 177 191
-0.112009 0.334523 0.164501 0.194248 0.94403 0.266598 194 194 204
-0.0838895 0.230752 0.326145 0.351862 0.760193 0.546169 126 127 139
-0.0801705 0.208291 0.350356 0.312521 0.669876 0.673496 56 59 72
-0.203563 0.317448 -0.151331 -0.0165243 0.775765 -0.630806 140 147 128
-0.14142 0.338973 0.167571 0.149551 0.946169 0.287051 171 170 181
-0.155035 0.344287 0.153356 0.108421 0.964592 0.240434 189 188 199
-0.146839 0.3343 0.185665 0.119768 0.935175 0.33332 189 189 201
-0.0987077 0.193871 0.373699 0.39363 0.628118 0.671211 173 179 195
-0.160682 0.339514 0.172455 0.116664 0.954954 0.272859 173 172 183
-0.121534 0.240323 0.33383 0.223049 0.775038 0.59124 52 107 77
-0.1196 0.199533 0.379319 0.470806 0.597943 0.648695 127 136 162
-0.145188 0.278356 0.288283 0.155226 0.825792 0.542193 136 142 126
-0.229328 0.354691 -0.0374645 0.0706923 0.997474 0.00688621 189 187 198
-0.148753 0.26113 0.312642 0.199334 0.792359 0.576571 66 98 60
-0.180142 0.340414 0.177683 0.104 0.968794 0.224992 190 188 197
-0.233183 0.355024 -0.00760989 0.0371745 0.999284 -0.00699594 24 36 139
-0.226108 0.356526 0.0665231 -0.0990527 0.994918 -0.0180877 133 136 114
-0.265478 0.358133 -0.0674243 0.0152597 0.965244 -0.260904 113 113 127
-0.169921 0.26806 0.309541 0.168141 0.844972 0.50769 145 162 134
-0.188306 0.285276 0.287453 0.203351 0.821428 0.532826 177 180 198
-0.26433 0.355433 -0.0177162 -0.00854071 0.999622 0.0261547 165 163 186
-0.30794 0.304218 -0.151318 0.0456066 0.765806 -0.641452 170 161 153
-0.174088 0.204141 0.39093 0.260854 0.659283 0.705195 126 126 138
-0.209358 0.292919 0.277284 0.147656 0.875113 0.460842 29 41 144
-0.224195 0.355825 0.0109582 -0.0564602 0.998375 -0.00766017 23 33 115
-0.312723 0.327329 -0.120049 -0.0817243 0.84404 -0.530017 27 31 27
-0.189894 0.194126 0.401414 0.284869 0.55314 0.782871 155 154 163
-0.306456 0.351773 -0.0455943 -0.0611188 0.988059 -0.141435 176 167 173
-0.218036 0.21348 0.393524 0.177395 0.62795 0.757766 43 37 104
-0.252937 0.27174 0.329648 0.191442 0.843653 0.501596 77 61 90
-0.336979 0.357061 0.00389947 0.103232 0.99215 -0.0705736 122 131 97
-0.364172 0.358601 -0.0437825 0.412653 0.886643 -0.20876 194 189 196
-0.334176 0.358566 0.0856954 0.108563 0.993828 0.0228341 191 189 194
-0.321098 0.336628 0.22721 -0.0134122 0.960384 0.278358 147 145 158
-0.3442 0.357028 0.134571 -0.0397162 0.977254 0.208322 182 179 187
-0.337439 0.350544 0.180768 -0.141309 0.965765 0.217551 154 152 164
-0.411523 0.328345 0.0599308 0.177848 0.981372 -0.0726487 183 172 171
-0.409165 0.330801 0.0702824 -0.0335981 0.999428 -0.00387688 184 172 172
0.162427 0.242689 0.169417 -0.202764 0.795751 0.570673 152 155 171
0.0989382 0.313754 -0.0128167 0.119514 0.991506 0.0513156 153 147 151
0.168032 0.16308 0.265878 0.376776 0.501393 0.778874 185 187 199
0.0925768 0.246168 0.186531 0.456087 0.820424 0.344804 151 156 171
0.00899408 0.315661 -0.107074 0.215639 0.941608 -0.258602 173 171 180
0.0935949 0.198987 0.264963 0.36735 0.833831 0.412043 166 172 190
-0.028927 0.310497 -0.155827 0.176283 0.96234 -0.206944 201 196 201
0.00784383 0.287511 0.174548 0.463392 0.831385 0.306701 175 179 196
0.0318841 0.211251 0.29238 0.224516 0.766229 0.602068 168 174 192
-0.0440698 0.329084 0.0707936 0.238534 0.968769 0.0677249 173 175 186
-0.108653 0.323719 -0.155168 0.106712 0.974871 -0.19555 201 195 201
-0.0835515 0.335674 -0.0505568 0.499392 0.825671 -0.262439 171 170 180
-0.126207 0.342281 -0.0890725 0.187197 0.966553 -0.175307 180 179 190
-0.107128 0.20883 0.364078 0.440079 0.68683 0.578441 174 181 197
-0.1462 0.254469 0.321243 0.18442 0.784927 0.591506 62 111 70
-0.22405 0.357815 0.0774637 -0.0860815 0.995074 -0.0491674 149 148 151
-0.261647 0.355801 0.0345053 0.0116111 0.999924 0.00411964 122 140 57
-0.193221 0.258512 0.329926 0.0990745 0.78538 0.611033 82 65 71
-0.181317 0.228501 0.367012 0.0904098 0.790717 0.605468 168 175 178
-0.219204 0.295787 0.275422 0.147627 0.876501 0.458205 22 34 122
-0.312879 0.346699 -0.076823 0.153957 0.981083 -0.11736 153 149 173
-0.306763 0.355472 0.00410928 0.00443568 0.999969 -0.0064524 107 116 49
-0.320543 0.35404 -0.0208645 -0.0210469 0.988764 -0.147997 36 47 138
-0.336889 0.350607 -0.0470933 0.021529 0.991441 -0.128769 31 47 153
-0.316041 0.356083 0.0306713 0.0460374 0.998835 0.014517 77 87 43
-0.285782 0.290674 0.317859 0.145168 0.868327 0.474273 184 185 196
-0.281967 0.284063 0.330506 0.451314 0.872067 0.189248 186 186 196
-0.313222 0.312021 0.28449 0.0195712 0.850758 0.525194 180 179 188
-0.332056 0.325973 0.252516 -0.0539867 0.925528 0.37481 41 40 44
-0.305274 0.20725 0.402054 -0.253131 0.602088 0.757243 176 171 174
-0.426393 0.316916 -0.0795734 -0.264671 0.905424 -0.331901 183 166 161
-0.425854 0.322691 -0.0333508 -0.0195599 0.963834 -0.265786 183 168 164
-0.342601 0.308507 0.284818 -0.102881 0.857548 0.504012 174 170 178
0.171195 0.224624 0.198864 0.117533 0.711567 0.692719 142 146 163
0.046018 0.29421 -0.174456 0.11229 0.818763 -0.563044 205 197 200
0.102075 0.277266 0.0878861 0.285374 0.93593 0.206389 186 185 192
0.102463 0.171842 0.296584 0.419861 0.648711 0.634737 135 140 156
-0.00864104 0.321576 -0.0906557 0.163269 0.96558 -0.202481 177 175 185
-0.0306338 0.309513 -0.168127 0.240162 0.962065 -0.12943 202 197 202
0.0206201 0.292087 0.145703 0.362564 0.84405 0.395127 175 179 194
-0.0813388 0.329087 -0.113714 0.113854 0.971966 -0.205716 153 153 167
-0.0236763 0.233162 0.300809 0.280444 0.774464 0.567059 190 193 207
0.00109803 0.176042 0.355093 0.424754 0.568829 0.704285 140 146 164
-0.035712 0.221525 0.325727 0.208089 0.716012 0.666352 152 158 177
-0.146567 0.346976 -0.0863057 -0.0617606 0.966012 -0.251008 153 150 160
-0.178492 0.347763 -0.068678 0.25532 0.963349 -0.0822856 119 92 98
-0.104192 0.299377 0.232417 0.326836 0.776974 0.538043 191 193 205
-0.0693332 0.174826 0.374736 0.287826 0.505004 0.813712 57 57 86
-0.196784 0.340642 -0.106246 -0.0213179 0.962792 -0.2694 46 106 68
-0.190071 0.274462 0.304423 0.221608 0.786801 0.57605 49 48 59
-0.176365 0.216322 0.383093 0.10478 0.754675 0.647678 135 135 146
-0.28611 0.355975 -0.0495751 -0.219224 0.975601 -0.0120316 135 130 137
-0.229466 0.298039 0.274788 0.191843 0.881812 0.430817 22 37 146
-0.222635 0.238379 0.365851 0.241797 0.769083 0.591647 30 35 127
-0.248644 0.182846 0.429775 0.27796 0.616675 0.736513 168 167 174
-0.406362 0.292226 -0.12839 0.291687 0.854594 -0.429637 188 169 164
-0.346488 0.360659 0.069644 0.388593 0.913781 -0.118323 193 188 193
-0.333006 0.354082 0.138184 0.0942903 0.982549 0.160334 170 166 171
-0.358512 0.347134 0.184178 -0.147098 0.957611 0.247673 43 42 45
-0.320144 0.270149 0.344949 -0.117451 0.780487 0.61404 177 176 181
-0.398214 0.334957 0.0732886 -0.0758189 0.995771 -0.0518783 189 180 180
-0.00588295 0.32237 0.0330572 0.120054 0.970232 0.210326 172 171 184
-0.0151917 0.196072 0.34624 0.249285 0.646379 0.721145 137 143 163
-0.225077 0.344246 0.173828 -0.189882 0.94621 0.261977 188 186 195
-0.334457 0.326792 -0.115859 -0.166272 0.844017 -0.50989 17 30 130
-0.398206 0.346778 -0.0243008 0.072926 0.996937 -0.0282589 182 175 177
0.00172089 0.326515 -0.00538048 0.264294 0.957696 0.113867 180 180 192
0.0489928 0.182525 0.317581 0.341166 0.804422 0.486324 118 124 140
-0.142513 0.354936 -0.0148084 0.166864 0.985958 -0.00656955 169 170 184
-0.204821 0.328546 -0.13357 -0.0642467 0.86286 -0.501343 58 106 69
-0.381683 0.357699 0.00620199 -0.256792 0.964984 -0.0535132 187 180 181
-0.278284 0.213031 0.414032 -0.0721648 0.619473 0.781694 179 176 182
0.110084 0.308189 -0.107876 0.0329404 0.972797 -0.229301 206 201 207
