ply
format ascii 1.0
element vertex 628
property float x
property float y
property float z
property float nx
property float ny
property float nz
property uchar diffuse_red
property uchar diffuse_green
property uchar diffuse_blue
end_header
0.00404855 -0.00234896 -0.00150869 0.00511213 -0.104507 -0.994511 74 61 121
0.00414681 -0.00173929 -0.00148033 0.00180844 0.0246341 -0.999695 192 177 192
0.00396069 -0.00205128 -0.00152863 0.0166515 0.124311 -0.992103 172 158 185
0.00396991 -0.00138759 -0.00142176 -0.0665738 0.17493 -0.982328 152 139 176
0.00385055 -0.00104097 -0.00133555 0.00889081 0.193828 -0.980995 49 36 115
0.00408983 -0.00079132 -0.00128728 0.00506189 0.203704 -0.97902 48 35 115
0.00397816 -0.000499619 -0.00123407 0.00589226 0.144555 -0.989479 122 107 158
0.00385304 -0.000168518 -0.00117376 0.00515465 0.140207 -0.990109 97 82 133
0.00406299 0.000276393 -0.00112918 0.0238892 0.156522 -0.987385 74 60 123
0.0039582 0.000594653 -0.00108694 0.04163 0.175356 -0.983624 172 158 190
0.00395092 0.000600892 -0.00108268 0.0463391 0.1491 -0.987736 167 154 187
0.00383299 0.000926543 -0.00102723 0.00468613 0.162727 -0.98666 77 65 127
0.00383787 0.000920051 -0.00101829 0.00305496 0.172299 -0.98504 78 65 128
0.00371984 0.00124649 -0.000963445 0.0233936 0.169611 -0.985234 48 36 116
0.0039562 0.0015071 -0.000925188 0.000534452 0.173994 -0.984746 76 63 131
0.00385245 0.00183124 -0.000870524 0.00213247 0.159243 -0.987237 95 79 133
0.00374014 0.00215838 -0.00081069 0.028176 0.137662 -0.990079 169 156 188
0.00396873 0.00241461 -0.000776959 0.00967708 0.127455 -0.991797 183 169 193
0.00384517 0.00276088 -0.000725164 0.00628978 0.148445 -0.9889 68 56 122
0.00373589 0.00308274 -0.000674276 -0.0376489 0.180865 -0.982787 128 112 165
0.0036116 0.00340701 -0.000593335 -0.0933894 0.225375 -0.969786 115 100 157
0.00383312 0.00361155 -0.000470961 -0.134214 0.255452 -0.957461 50 38 118
0.00378443 0.00396568 -0.000444812 -0.0536753 0.480661 -0.875263 60 47 117
0.00371696 0.00422836 -0.000238351 -0.0223697 0.619671 -0.784543 111 97 155
0.00367563 0.00449053 -0.000113829 -0.0462473 0.595394 -0.802101 51 38 110
0.00359617 0.00477344 0.000374221 -0.207235 0.77997 -0.590508 45 35 119
0.00360191 0.00473702 0.000143315 -0.107537 0.735566 -0.668864 48 37 113
0.00304277 0.00589291 0.00223217 0.155646 0.787353 -0.596532 187 176 198
0.00310077 0.00571176 0.0019322 0.210673 0.799293 -0.562804 198 186 196
0.00300019 -0.00564606 0.000310488 -0.0584528 -0.667182 -0.742598 54 54 125
0.00349848 -0.00482528 -0.000368471 -0.00131084 -0.672284 -0.740293 44 61 162
0.00332372 -0.00508314 -0.000150596 -0.015739 -0.674704 -0.737921 45 53 140
0.00341656 -0.00466428 -0.000476334 0.0530461 -0.665968 -0.744093 46 65 170
0.00352612 -0.00396842 -0.00104557 -0.105865 -0.39993 -0.910411 78 81 157
0.00334891 -0.00424136 -0.000835399 0.0683301 -0.592005 -0.803033 53 65 159
0.0035006 -0.00335258 -0.00132326 -0.0332692 -0.314126 -0.948798 123 110 153
0.00366037 -0.00300799 -0.00139823 0.0061721 -0.177045 -0.984183 122 110 157
0.00349553 -0.00262777 -0.00145421 -0.0355107 -0.109739 -0.993326 48 36 113
0.00370471 -0.00228947 -0.0015085 -0.00486241 -0.0474037 -0.998864 95 81 136
0.003598 -0.001977 -0.0014949 -0.0780837 0.13987 -0.987086 186 171 193
0.00378751 -0.00170363 -0.00147916 -0.021446 0.185992 -0.982317 191 175 193
0.00362154 -0.00133097 -0.00139334 -0.00964801 0.185806 -0.982539 73 61 125
0.00351244 -0.00101069 -0.00134124 0.00266773 0.190631 -0.981658 66 51 120
0.00374348 -0.00075366 -0.00129038 0.0239504 0.180292 -0.983321 78 63 127
0.00363257 -0.00043161 -0.00122584 0.0264799 0.14374 -0.989261 173 158 187
0.00364663 -0.000424791 -0.00123225 0.0195421 0.154881 -0.98774 175 160 188
0.00351319 -9.33314e-05 -0.00118011 -0.0108202 0.119763 -0.992744 137 120 157
0.00339358 0.000394754 -0.00111093 0.00242473 0.12943 -0.991586 156 141 172
0.00371886 0.000346066 -0.00112066 0.0531397 0.154192 -0.986611 131 116 161
0.00360734 0.00066583 -0.00107052 0.0362119 0.0848691 -0.995734 89 74 132
0.00349578 0.000993135 -0.00102539 0.0166368 0.154935 -0.987785 52 40 117
0.00337828 0.00132265 -0.000956757 0.0337825 0.183749 -0.982393 53 41 116
0.00361159 0.00157424 -0.000900133 0.0361305 0.210831 -0.976855 114 100 155
0.00360913 0.00158125 -0.000907113 0.0237687 0.1841 -0.98262 117 102 156
0.00351437 0.00189818 -0.000869744 -0.0105616 0.195644 -0.980618 186 170 193
0.00351789 0.00190353 -0.000869911 -0.0136331 0.189446 -0.981796 190 174 196
0.00363222 0.00247462 -0.000785423 0.0173574 0.131491 -0.991166 73 60 125
0.0033814 0.00223378 -0.000789255 0.0375725 0.165434 -0.985505 100 87 143
0.0033036 0.00256866 -0.00074755 0.0127643 0.184362 -0.982775 65 51 123
0.00350154 0.00281906 -0.000708591 0.0140741 0.189288 -0.981821 132 118 165
0.00342728 0.00315956 -0.000651889 -0.00953635 0.161469 -0.986832 191 176 196
0.00329948 0.00348657 -0.000545469 -0.147706 0.274118 -0.950285 80 66 131
0.0032956 0.00348438 -0.000547732 -0.131662 0.259055 -0.956847 81 67 132
0.00344107 0.00432712 -0.000291124 0.0124156 0.413702 -0.910328 124 109 155
0.00333534 0.00457774 -9.79088e-05 -0.0704283 0.196552 -0.977961 74 58 120
0.00324032 0.0047878 0.000208917 0.0244441 0.717291 -0.696345 59 47 117
0.00278821 0.00581143 0.00202766 0.205435 0.773719 -0.599295 158 149 180
0.00310091 -0.00485209 -0.000347267 0.0893173 -0.625727 -0.774912 51 65 161
0.00292289 -0.00510985 -0.000117254 0.0319771 -0.638238 -0.769175 52 61 149
0.00301053 -0.00443868 -0.000675791 0.17616 -0.634725 -0.752391 95 96 165
0.00304411 -0.00472392 -0.000455441 0.113163 -0.618406 -0.777668 70 81 167
0.00315381 -0.00400808 -0.00105306 0.0142198 -0.568288 -0.822707 48 39 115
0.00298101 -0.00429786 -0.000827561 0.133586 -0.595755 -0.791979 60 54 126
0.00299659 -0.00416751 -0.000914057 0.06144 -0.485066 -0.872317 48 40 115
0.00332176 -0.00367949 -0.00118625 -0.0336809 -0.348745 -0.936612 72 62 126
0.00310788 -0.00337834 -0.00129812 -0.0306059 -0.315882 -0.948305 79 65 123
0.00328104 -0.00304378 -0.00139964 -0.0160828 -0.198639 -0.979941 119 106 160
0.00312131 -0.00262068 -0.00144841 -0.0350925 -0.109471 -0.99337 49 37 111
0.00332495 -0.00230515 -0.00146233 -0.0339721 -0.0416096 -0.998556 88 75 135
0.00314095 -0.00197276 -0.00145906 -0.0505413 0.128127 -0.990469 90 76 134
0.00338275 -0.00158429 -0.00142342 0.0125304 0.103903 -0.994508 104 91 144
0.00328341 -0.00127078 -0.00138816 0.0127938 0.157524 -0.987433 79 64 128
0.00317541 -0.000945672 -0.00133819 0.0119802 0.156844 -0.987551 181 165 190
0.0031653 -0.000943551 -0.00133392 0.00399317 0.161908 -0.986798 182 166 191
0.00339677 -0.000682662 -0.00126988 0.0100761 0.197031 -0.980346 183 166 191
0.00329251 -0.000361326 -0.00121384 0.0129191 0.112878 -0.993525 186 171 189
0.00316798 -3.62892e-05 -0.00117961 -0.00375027 0.134867 -0.990857 156 142 173
0.00304873 0.000448639 -0.001108 -0.0504549 0.0679262 -0.996414 125 110 153
0.00326575 0.000719618 -0.00107972 0.0195617 0.0864522 -0.996064 154 140 181
0.00315305 0.00106553 -0.00100202 0.0257212 0.174291 -0.984359 52 40 115
0.00303685 0.00139048 -0.000944447 0.0122554 0.197717 -0.980183 73 60 126
0.00327458 0.00165354 -0.0009065 0.023763 0.208753 -0.97768 171 157 188
0.00327366 0.00164714 -0.000903153 0.0395735 0.176362 -0.98353 169 155 187
0.00315087 0.00197956 -0.000841484 0.0297331 0.180023 -0.983213 159 145 178
0.00303855 0.00230669 -0.00078165 0.0163356 0.169445 -0.985404 52 39 114
0.0030615 0.00230088 -0.000771228 0.0142722 0.18107 -0.983366 52 39 114
0.0029541 0.002628 -0.000722019 0.000105265 0.192097 -0.981376 120 105 156
0.00319316 0.00290106 -0.000689395 0.0165067 0.181048 -0.983336 187 172 196
0.00309245 0.00323422 -0.000653098 0.0419432 0.124479 -0.991335 153 140 176
0.00308902 0.00322809 -0.000652324 0.0259662 0.135615 -0.990421 157 143 178
0.00295844 0.00355772 -0.0005503 -0.0511385 0.459934 -0.886479 50 39 115
0.00323723 0.00379222 -0.0005309 -0.111056 0.451144 -0.885514 52 39 116
0.00288765 0.0038623 -0.000420618 -0.0706389 0.442661 -0.893902 60 48 115
0.00314776 0.00409569 -0.00035705 -0.0377246 0.497707 -0.866524 135 122 163
0.00306288 0.00437455 -0.000131923 -0.0341311 0.523728 -0.851201 174 160 181
0.00295117 0.00463866 0.000199884 -0.000285088 0.744118 -0.668048 163 149 176
0.00290126 0.0048488 0.00044247 0.186765 0.842222 -0.505748 156 141 175
0.00257697 0.00556179 0.00151592 0.0758951 0.848928 -0.52303 173 163 187
0.00252867 0.00575125 0.00178901 0.15554 0.810034 -0.565377 105 100 148
0.00247603 0.00592223 0.00211612 0.0865126 0.855644 -0.510284 55 57 133
0.00247234 0.00588668 0.00204415 0.170987 0.83131 -0.528854 59 60 132
0.00272213 -0.00489261 -0.000345038 0.0698931 -0.63998 -0.765206 149 146 188
0.00251187 -0.00513524 -0.000125137 0.0485084 -0.659998 -0.749701 157 153 188
0.0027081 -0.00462065 -0.000583911 0.163911 -0.624072 -0.763982 147 138 179
0.00291996 -0.00369725 -0.00114443 0.0467682 -0.353535 -0.934251 122 109 155
0.00273174 -0.00332476 -0.00129421 -0.0565326 -0.259971 -0.96396 164 151 179
0.00295043 -0.00293424 -0.00143518 -0.063253 -0.078537 -0.994903 75 62 120
0.00294296 -0.00228033 -0.00146033 -0.00493778 -0.0325273 -0.999459 95 80 136
0.00279074 -0.00191492 -0.00144854 -0.0384277 0.103876 -0.993848 170 155 185
0.00304153 -0.00153366 -0.00143019 -0.00845383 0.136582 -0.990593 126 110 157
0.00292703 -0.00122398 -0.00137624 0.0124686 0.16747 -0.985799 180 164 190
0.0028162 -0.000894908 -0.00130095 0.0230135 0.227773 -0.973442 173 158 181
0.00282572 -0.000899045 -0.00130445 0.0283139 0.226584 -0.97358 174 158 181
0.00303462 -0.000649518 -0.00122381 0.00344278 0.2723 -0.962206 192 177 192
0.00304923 -0.000655245 -0.00123672 0.00649472 0.285319 -0.958411 192 177 191
0.002738 -0.000593528 -0.00126814 0.00818886 0.114481 -0.993392 189 174 191
0.00288781 0.00014723 -0.00115455 0.050386 0.0723616 -0.996105 77 63 126
0.00269045 0.000497992 -0.00108425 0.00548797 -0.0292935 -0.999556 141 126 171
0.00290872 0.000779754 -0.00106191 -0.00433794 0.11586 -0.993256 143 129 172
0.00281764 0.00113036 -0.00101261 0.00484565 0.170462 -0.985353 48 37 114
0.0026979 0.00145777 -0.000944728 0.00339843 0.182811 -0.983142 103 88 145
0.00292339 0.00172034 -0.000887496 0.0192553 0.147529 -0.98887 182 168 194
0.00282943 0.00203797 -0.000834511 0.0159141 0.194606 -0.980752 93 80 136
0.00272729 0.00236974 -0.000783348 0.0187165 0.18315 -0.982907 55 42 116
0.00261915 0.00272528 -0.000738272 0.0201431 0.198021 -0.97999 169 155 189
0.00285036 0.00296643 -0.000676776 0.0263763 0.176389 -0.983967 188 174 195
0.00274095 0.00329663 -0.00063151 -0.0150305 0.168385 -0.985607 72 59 125
0.00260095 0.00361559 -0.00050079 -0.0358655 0.417624 -0.907911 49 37 115
0.0028242 0.00417359 -0.000334329 -0.0498481 0.420688 -0.905835 164 151 179
0.00253158 0.00393558 -0.000410559 -0.0965286 0.489057 -0.866894 72 58 122
0.00273921 0.00448748 -0.000193712 -0.114191 0.439445 -0.890981 178 165 183
0.00265337 0.00471646 0.000277897 -0.0101629 0.737866 -0.674871 193 179 191
0.00256937 0.0049607 0.000587988 0.152703 0.829942 -0.536543 176 163 187
0.00225328 0.00564368 0.0016278 0.112393 0.857685 -0.50174 52 54 129
0.00229884 0.00544932 0.00135532 0.0198133 0.877244 -0.479637 103 98 149
0.00221061 0.00585512 0.00186112 0.306293 0.877083 -0.370013 45 53 137
0.00215899 -0.00494555 -0.000418673 0.0667918 -0.677737 -0.732265 179 169 189
0.00234962 -0.00463816 -0.000638774 0.00429504 -0.591729 -0.806126 126 114 157
0.00253464 -0.00429587 -0.000871952 -0.000497609 -0.535783 -0.844355 47 36 109
0.00249168 -0.00379266 -0.00126045 0.0545082 -0.367611 -0.928381 166 155 180
0.00231888 -0.00400185 -0.00104219 -0.025526 -0.486271 -0.873434 119 109 156
0.00242624 -0.00300033 -0.00140167 -0.0112762 -0.17205 -0.985024 145 132 167
0.00273767 -0.00261024 -0.00143851 -0.0446082 -0.137841 -0.989449 141 126 166
0.00256807 -0.00226017 -0.00146381 0.0540225 -0.00499557 -0.998527 153 139 171
0.00241973 -0.00192276 -0.00147579 0.0477835 -0.0035974 -0.998852 109 94 146
0.00245216 -0.00184457 -0.00148112 -0.00626628 0.152831 -0.988233 120 106 156
0.0026886 -0.00147425 -0.00143862 0.0430918 0.185396 -0.981719 132 119 160
0.00259312 -0.00114292 -0.0013808 0.0497441 0.222203 -0.97373 92 78 133
0.00248663 -0.000815611 -0.0013002 0.0173582 0.238383 -0.971016 180 165 190
0.00239757 -0.000475885 -0.00125711 -0.00408642 0.0556937 -0.99844 190 174 193
0.00265843 -0.000123731 -0.00117931 0.0095533 0.244264 -0.969661 90 78 130
0.00254282 0.000217255 -0.00114708 0.0208237 0.17196 -0.984884 66 52 120
0.00236022 0.000604645 -0.0011022 0.0236545 0.0962707 -0.995074 171 158 194
0.00258329 0.000866682 -0.00104693 0.0120981 0.179136 -0.98375 97 85 141
0.00246723 0.00119759 -0.000993157 0.00388714 0.172632 -0.984979 49 37 113
0.00234893 0.0015264 -0.000940136 0.010505 0.165755 -0.986111 140 126 170
0.00257999 0.0017837 -0.000874114 0.00101718 0.256338 -0.966586 168 154 186
0.0025697 0.0017874 -0.000871064 0.0012212 0.253461 -0.967345 168 153 186
0.00246311 0.00210742 -0.000816388 0.0208056 0.178736 -0.983677 53 40 114
0.00248634 0.00211353 -0.000813565 0.0210098 0.176795 -0.984023 53 40 114
0.00237516 0.00243794 -0.000750848 -0.0152949 0.223405 -0.974606 68 56 124
0.00227709 0.00279863 -0.000730214 -0.0138239 0.171966 -0.985006 164 151 191
0.00248754 0.00302506 -0.000709444 -0.00495714 0.324409 -0.945904 128 116 159
0.00238064 0.00335065 -0.000566825 -0.0192794 0.317528 -0.948053 58 46 120
0.00227954 0.00368236 -0.000453342 -0.00336576 0.42382 -0.905741 50 38 116
0.00223192 0.00412945 -0.000441578 0.0752544 0.370508 -0.925777 106 93 147
0.0024691 0.00425569 -0.000237245 -0.101167 0.448664 -0.887956 136 123 160
0.00214189 0.00442337 -0.000261952 -0.0847057 0.400186 -0.912511 71 58 118
0.0024158 0.00468833 -0.000190724 0.216458 0.500638 -0.838157 127 116 156
0.00209762 0.0051663 0.000752629 0.0559863 0.874413 -0.481941 91 83 144
0.0020391 0.00537021 0.00115962 0.0676455 0.854516 -0.515002 53 54 129
0.00170914 0.00541974 0.00127155 -0.0115505 0.842877 -0.537982 43 57 150
0.00199952 0.00559122 0.0014049 0.194215 0.78272 -0.591294 44 52 140
0.00193817 0.00575736 0.00168093 0.207996 0.894213 -0.396386 47 61 155
0.00179103 -0.00496646 -0.000465019 0.0428852 -0.572948 -0.818469 152 139 172
0.00195787 -0.00526629 -9.25368e-05 0.0233107 -0.698176 -0.715546 180 170 188
0.00199217 -0.00462956 -0.000740531 -0.0228285 -0.536708 -0.84346 77 66 126
0.0021624 -0.0043223 -0.00090342 0.0020205 -0.433729 -0.901041 51 41 111
0.00208869 -0.00370989 -0.00116356 -0.027651 -0.415636 -0.90911 87 73 124
0.00191436 -0.00401803 -0.00101932 0.005744 -0.419659 -0.907663 52 41 109
0.00226824 -0.00335317 -0.00131957 0.014314 -0.329202 -0.944151 142 128 164
0.00204128 -0.0030519 -0.00139805 0.0352309 -0.198535 -0.979461 56 43 110
0.00219096 -0.00270491 -0.00145359 0.0392671 -0.162529 -0.985922 103 90 145
0.0022017 -0.00269046 -0.00145288 0.0193551 -0.159211 -0.987055 106 94 148
0.00211273 -0.00165502 -0.00147065 0.0132046 0.169846 -0.985382 103 90 147
0.00234527 -0.00140387 -0.00141448 0.0199931 0.175 -0.984365 50 38 113
0.00224861 -0.00106228 -0.00136456 0.0199004 0.176472 -0.984105 87 73 132
0.00213688 -0.000747423 -0.00129606 0.01083 0.243844 -0.969754 188 173 192
0.00205854 -0.000303235 -0.00120447 0.045966 0.231867 -0.971661 153 139 172
0.00231556 -5.10843e-05 -0.00118687 0.00622216 0.154202 -0.98802 90 77 135
0.00221206 0.00029252 -0.00114481 0.0174552 0.114213 -0.993303 72 59 123
0.00201416 0.000662309 -0.00108759 0.0120482 0.19668 -0.980393 161 147 185
0.00201092 0.000668888 -0.00109502 0.0178925 0.100073 -0.994819 157 144 182
0.0022416 0.00092907 -0.00104659 0.00508421 0.156518 -0.987662 66 53 120
0.00212467 0.00126033 -0.000993879 0.0133989 0.158177 -0.98732 54 41 115
0.00200811 0.00158844 -0.000938738 0.00589914 0.176723 -0.984242 168 154 188
0.00223351 0.00185179 -0.000882113 0.0166593 0.188156 -0.981998 134 120 163
0.00211766 0.00218139 -0.000811963 -0.00363615 0.187265 -0.982303 48 37 113
0.00200553 0.00251316 -0.000785648 -0.00497288 0.169461 -0.985524 67 55 129
0.00199634 0.00252168 -0.00078473 0.0233668 0.190198 -0.981468 69 57 131
0.00210859 0.00310498 -0.000664317 -0.020019 0.17677 -0.984048 71 55 121
0.00197154 0.00337526 -0.000544606 0.0768811 0.36842 -0.926475 98 84 143
0.00181012 0.00374237 -0.000282287 -0.332716 0.489699 -0.805912 113 99 148
0.00172258 0.00406594 -8.92114e-05 -0.150356 0.467376 -0.871179 189 174 191
0.00191191 0.00456779 0.000127895 -0.174716 0.780009 -0.600882 115 100 149
0.00182832 0.00507056 0.000589415 0.164337 0.80551 -0.56934 79 74 134
0.00150354 0.00512579 0.000717862 -0.0495779 0.785468 -0.616913 44 53 138
0.00141958 0.00528377 0.00110025 -0.0711268 0.852242 -0.518291 44 62 159
0.00177138 0.00526407 0.000882232 0.153507 0.763898 -0.626815 44 50 133
0.00161697 -0.00533173 -0.00019089 0.318778 -0.563798 -0.761914 182 170 187
0.00140363 -0.00501074 -0.000453214 0.0515396 -0.524531 -0.84983 169 157 181
0.00160006 -0.00466111 -0.000726307 0.0108531 -0.571961 -0.820209 67 55 120
0.00177748 -0.0043593 -0.000894057 0.0187033 -0.422216 -0.906302 46 36 110
0.00169376 -0.00373127 -0.00115875 0.00245323 -0.412655 -0.910884 146 132 169
0.00187514 -0.00339814 -0.00131275 -0.00788597 -0.3344 -0.942399 134 122 165
0.0018133 -0.00266783 -0.00147088 0.041954 -0.198958 -0.979109 66 53 119
0.00176101 -0.00223145 -0.00148715 0.0225946 -0.0141392 -0.999645 172 155 185
0.0020267 -0.00235908 -0.00150164 0.00251965 -0.000385688 -0.999997 72 58 120
0.00198051 -0.00192488 -0.00149532 0.0193749 0.000664642 -0.999812 124 109 155
0.00179889 -0.00161275 -0.00146109 0.0112186 0.192204 -0.981291 85 72 131
0.00204756 -0.00124813 -0.00140314 -0.00680161 0.213539 -0.976911 52 39 114
0.00170146 -0.00116083 -0.00139282 -0.0192479 0.253826 -0.967058 68 55 121
0.00184183 -0.000577911 -0.00126064 0.0116968 0.138135 -0.990345 187 172 189
0.001724 -0.000216656 -0.00121328 0.0502541 0.0869111 -0.994948 113 100 147
0.00197384 2.69233e-05 -0.00116623 0.0269284 0.159256 -0.98687 75 62 129
0.00181531 0.000383408 -0.00112393 0.0434157 0.0730557 -0.996382 105 91 145
0.00166319 0.000734005 -0.00108694 0.0198188 0.172719 -0.984772 124 112 157
0.00189427 0.000997782 -0.00104049 0.0103762 0.166384 -0.986007 53 40 112
0.00178017 0.00131887 -0.000978365 0.00730069 0.18029 -0.983587 66 53 121
0.0016654 0.00165302 -0.000925511 -0.0151664 0.124631 -0.992088 175 161 192
0.00188564 0.00192523 -0.000879654 0.024552 0.172325 -0.984734 118 104 152
0.00189233 0.00191698 -0.000883144 0.013653 0.142424 -0.989712 122 108 155
0.00176557 0.00226229 -0.000833767 0.026615 0.144157 -0.989197 50 38 113
0.00177669 0.00225148 -0.00083135 0.0270911 0.147231 -0.988731 50 38 113
0.00164782 0.00258636 -0.000777102 0.0373449 0.185773 -0.981883 59 48 117
0.00188365 0.00283768 -0.000717905 -0.004554 0.167228 -0.985907 76 61 126
0.00153852 0.00291603 -0.000716065 0.0369338 0.137036 -0.989877 156 140 177
0.00176382 0.00316588 -0.000650626 -0.029597 0.185946 -0.982114 161 144 182
0.00162483 0.00349046 -0.000522646 -0.0982606 0.241809 -0.965336 148 132 166
0.0014858 0.00381636 -0.000364947 -0.101019 0.242279 -0.964933 190 176 189
0.00138944 0.00413501 -2.38477e-05 -0.0981389 0.470735 -0.876799 189 176 190
0.00163084 0.00436083 0.000103458 -0.0384792 0.714811 -0.698258 182 167 187
0.00132165 0.00442349 0.000211238 -0.100052 0.713707 -0.693262 92 78 132
0.00126707 0.00463881 0.000461258 -0.0135567 0.71127 -0.702788 55 48 121
0.00124411 0.00495805 0.000596276 -0.0802621 0.708474 -0.701158 45 53 139
0.00119666 0.00518949 0.000811836 -0.01042 0.726627 -0.686953 46 65 164
0.00103434 -0.00504165 -0.000494235 0.0272627 -0.458728 -0.888158 179 168 186
0.00125851 -0.00530043 -0.000323914 0.124466 -0.464776 -0.876637 182 170 186
0.00117406 -0.00474047 -0.000620962 0.0219558 -0.524619 -0.851054 152 142 176
0.0013386 -0.00439129 -0.00083227 0.0664422 -0.513469 -0.855532 48 37 109
0.00128262 -0.00376236 -0.00114767 0.0242278 -0.425073 -0.904834 178 165 187
0.00152157 -0.00405081 -0.00100494 0.0330833 -0.423904 -0.905103 93 81 135
0.00146741 -0.00342958 -0.00128288 -0.00609864 -0.371127 -0.928562 152 139 173
0.00164245 -0.00308976 -0.00138608 0.00187223 -0.248776 -0.968559 55 42 109
0.00139009 -0.00276758 -0.00145665 0.0420754 -0.233444 -0.97146 79 66 126
0.00153827 -0.00255975 -0.0014524 0.0420382 -0.0774522 -0.996109 146 130 170
0.00137642 -0.00220557 -0.00148833 0.0375615 -0.0380688 -0.998569 189 173 189
0.00158991 -0.00190382 -0.00148375 -0.00935264 0.0533689 -0.998531 177 163 187
0.00144288 -0.00157691 -0.0014569 0.0146735 0.167972 -0.985683 68 55 120
0.00135454 -0.00108071 -0.00137855 0.0218862 0.229195 -0.973135 96 81 138
0.00159584 -0.000833863 -0.00131117 0.00893295 0.240982 -0.970489 183 168 192
0.00150161 -0.000491758 -0.00125928 0.0458679 0.105947 -0.993314 184 169 190
0.00136891 -0.000152321 -0.0012117 0.0442368 0.163657 -0.985526 78 65 123
0.00159287 0.000115846 -0.00117494 0.0126057 0.138326 -0.990306 59 46 117
0.00146638 0.000444494 -0.00111432 0.0122839 -0.00706611 -0.9999 130 117 163
0.00130114 0.00076476 -0.00108515 -0.00274634 0.155164 -0.987885 135 121 164
0.00154859 0.00106658 -0.00103287 0.0215858 0.16038 -0.986819 50 37 113
0.00142861 0.00137453 -0.000952369 0.00715875 0.170153 -0.985392 69 57 123
0.0013036 0.00170511 -0.000876288 -0.0738805 0.269927 -0.960042 97 82 134
0.00154955 0.00198884 -0.000890095 0.0281588 0.128048 -0.991368 133 120 163
0.00142059 0.0023245 -0.000836454 0.0172358 0.119824 -0.992645 114 98 148
0.00130388 0.00265445 -0.000767365 0.0519638 0.12639 -0.990619 174 160 186
0.00141516 0.0032246 -0.000639198 -0.0588915 0.211915 -0.975512 192 178 193
0.00128889 0.00355221 -0.000547036 0.0234654 0.327556 -0.94454 187 174 191
0.00113729 0.00386268 -0.000237954 0.0809639 0.594904 -0.799709 164 152 177
0.00107411 0.00426996 -6.15753e-05 -0.179902 0.777219 -0.602965 146 131 167
0.00104631 0.00456171 0.000163564 -0.150494 0.699467 -0.698639 130 120 169
0.00099184 0.0048067 0.000455394 -0.107461 0.773855 -0.624179 47 52 136
0.000946241 0.00503691 0.000688846 -0.0909952 0.822831 -0.560953 46 64 162
0.00086287 0.00521714 0.00101115 0.0598613 0.874693 -0.480967 45 66 165
0.000788638 -0.00526044 -0.00021667 -0.036358 -0.455091 -0.889703 182 171 186
0.000794078 -0.004771 -0.000641794 0.00564747 -0.491543 -0.870835 158 147 179
0.00110717 -0.00412601 -0.000983176 0.0546832 -0.494095 -0.867686 72 60 120
0.000955549 -0.00445943 -0.000815892 0.0199574 -0.503303 -0.863879 54 43 111
0.000888046 -0.00384539 -0.00113246 0.0207406 -0.422128 -0.906299 172 159 184
0.00105449 -0.00346672 -0.00126951 0.00711307 -0.373785 -0.927488 160 147 178
0.00123479 -0.00312226 -0.00137076 0.0217012 -0.255339 -0.966608 58 45 111
0.00116414 -0.00252513 -0.00148001 0.022808 -0.0386832 -0.998991 173 158 185
0.00120541 -0.00187873 -0.00148433 0.0233528 0.0588595 -0.997993 169 156 183
0.00111792 -0.00134676 -0.00142877 0.00936206 0.204925 -0.978733 50 37 113
0.00100752 -0.0010219 -0.00136561 0.0117903 0.206315 -0.978414 97 83 141
0.00124582 -0.000763307 -0.00130885 0.00745282 0.249578 -0.968325 186 171 192
0.00113822 -0.000426794 -0.00125071 0.00931527 0.141892 -0.989838 131 117 158
0.00113703 -0.000430826 -0.00124918 0.00568864 0.142908 -0.98972 132 118 158
0.00101861 -9.36883e-05 -0.00120178 -0.0140333 0.161878 -0.986711 73 60 126
0.00123789 0.000179663 -0.00115759 0.00362934 0.109298 -0.994002 62 49 116
0.00110836 0.0005055 -0.00111334 -0.0311796 0.0732748 -0.996824 161 146 181
0.00107347 0.000492827 -0.00112295 -0.00617364 -0.00457704 -0.99997 156 141 176
0.000948622 0.000821561 -0.00106082 -0.0221486 0.182754 -0.982909 177 162 187
0.00118225 0.00109155 -0.00103136 -0.00889594 0.220235 -0.975406 63 52 116
0.00107093 0.00143211 -0.000964121 -0.0251754 0.142798 -0.989432 106 90 144
0.000957165 0.00177187 -0.000914006 0.0581806 0.141943 -0.988163 157 142 176
0.00122143 0.00205551 -0.000879631 0.00881977 0.135071 -0.990797 177 162 189
0.00107421 0.00239988 -0.000818534 0.00949445 0.145634 -0.989293 171 157 183
0.000953625 0.00271984 -0.000761856 -0.00514248 0.169944 -0.98544 117 102 149
0.00118251 0.00297397 -0.00071114 -0.0754608 0.134345 -0.988058 181 167 190
0.000832879 0.00304164 -0.000691231 0.100686 0.275092 -0.956131 93 78 133
0.000991768 0.00359484 -0.000460483 -0.250265 0.537638 -0.805179 101 87 138
0.000821962 0.00395716 -0.000157045 -0.0824047 0.65901 -0.747607 130 115 157
0.000791183 0.00428738 -2.14189e-05 -0.110663 0.799136 -0.590878 121 107 153
0.000707996 0.00444393 0.000301378 -0.107329 0.711572 -0.694367 96 85 142
0.000623761 -0.0050915 -0.000454927 0.0114095 -0.488377 -0.872558 180 169 186
0.000371981 -0.00526362 -0.000183326 0.0721884 -0.683453 -0.726416 188 176 191
0.000378327 -0.00478208 -0.000602376 0.0149153 -0.636601 -0.771049 161 149 180
0.000722308 -0.00417836 -0.000978946 0.0124857 -0.501115 -0.86529 63 52 115
0.00055031 -0.00451351 -0.000799334 0.0114964 -0.516162 -0.856414 60 50 115
0.000656139 -0.00353036 -0.00124007 0.00533674 -0.300346 -0.953815 168 155 183
0.00083908 -0.00316618 -0.00136712 0.00811043 -0.243386 -0.969895 60 48 112
0.000947635 -0.00285774 -0.00145179 0.0119603 -0.1975 -0.98023 61 47 113
0.000784464 -0.00249927 -0.00149182 0.0131312 -0.0327663 -0.999377 179 164 189
0.000997462 -0.00218603 -0.00149529 0.028712 -0.00485778 -0.999576 189 174 188
0.000882044 -0.00160483 -0.00148356 0.0446235 0.180069 -0.982641 75 62 123
0.000770882 -0.00126612 -0.00143027 0.0375502 0.17966 -0.983012 50 38 114
0.000661482 -0.000949949 -0.00136042 -0.040929 0.254789 -0.96613 65 52 121
0.000896101 -0.000694849 -0.00128955 0.0100368 0.185689 -0.982558 126 111 159
0.000789564 -0.000368075 -0.00123928 -0.00518906 0.17275 -0.984952 111 95 147
0.000888798 0.000234517 -0.00115935 -0.00366039 0.11906 -0.99288 120 105 151
0.000710476 0.000554904 -0.00109679 -0.0558677 0.0737284 -0.995712 168 154 181
0.000600197 0.000885452 -0.00105258 -0.0273949 0.159595 -0.986802 110 97 144
0.000827798 0.00115844 -0.00100022 -0.0375987 0.190626 -0.980943 154 139 175
0.000827759 0.00116598 -0.00100524 -0.0102916 0.187076 -0.982291 153 139 174
0.000716131 0.00149435 -0.000945557 -0.0162258 0.190579 -0.981537 114 98 145
0.000605904 0.00183165 -0.000905758 0.0506098 0.131532 -0.990019 115 101 145
0.000840995 0.0021033 -0.000876005 -0.00558452 0.077198 -0.997 118 104 150
0.000700513 0.00244617 -0.000822805 0.0151726 0.131721 -0.991171 106 91 141
0.000571829 0.00277947 -0.000767342 0.0310833 0.201505 -0.978994 169 155 183
0.000755074 0.00337032 -0.000614792 0.0730123 0.314785 -0.946351 136 121 160
0.000617384 0.00371616 -0.000377059 -0.213269 0.653786 -0.726002 181 171 193
0.000621101 0.00368381 -0.000352154 -0.207889 0.606502 -0.767423 180 170 193
0.000497245 0.00399704 -3.37336e-05 -0.0126917 0.655169 -0.755375 164 149 177
0.000471415 0.00431971 9.62821e-05 -0.0151176 0.682724 -0.73052 78 62 124
0.000390479 0.00451475 0.000411135 -0.0824755 0.681172 -0.727463 52 39 117
0.000392628 0.00451764 0.000411278 -0.0807744 0.682598 -0.726316 52 39 117
0.000352113 0.0047886 0.000576729 -0.018604 0.696053 -0.71775 50 40 120
0.000364028 0.00480682 0.000560756 -0.117464 0.718792 -0.68523 51 41 121
0.000349368 0.00478369 0.000577348 -0.0260435 0.699125 -0.714524 50 40 120
1.48101e-05 0.00512273 0.000876772 0.0433846 0.883047 -0.467275 74 77 154
-4.96797e-05 -0.00486023 -0.000561019 -0.0213764 -0.561687 -0.827074 172 161 186
0.000313402 -0.00422164 -0.000957695 0.00944617 -0.488662 -0.872421 54 43 108
0.00012345 -0.00453588 -0.000763061 -0.00457803 -0.513289 -0.858204 73 63 124
0.000482662 -0.00388333 -0.00111138 0.0275788 -0.422476 -0.905954 167 155 182
0.000260937 -0.00357147 -0.0012378 0.00514678 -0.300639 -0.953724 169 156 183
0.000425782 -0.00319235 -0.00134604 0.00842484 -0.250959 -0.967961 62 49 113
0.00056991 -0.0028417 -0.00145525 -0.0147607 -0.153355 -0.988062 68 53 117
0.000391715 -0.0024811 -0.00148039 -0.0297516 -0.0371244 -0.998867 181 166 189
0.000611461 -0.00215507 -0.00150118 0.00420732 -0.0325657 -0.999461 190 174 188
0.000637812 -0.00188332 -0.00151753 -0.0423615 0.0410121 -0.99826 180 166 189
0.000535406 -0.00153489 -0.00147761 0.00926751 0.201818 -0.97938 93 79 133
0.000419775 -0.00121441 -0.00140124 -0.0303818 0.158574 -0.986879 91 76 134
0.000302897 -0.000882608 -0.0013182 -0.00385124 0.301506 -0.953457 149 134 173
0.000575797 -0.000572848 -0.00127751 -0.0228163 0.200862 -0.979353 136 120 164
0.000440882 -0.000235243 -0.00121552 -0.00267048 0.149269 -0.988793 150 135 169
0.000263845 -8.09801e-06 -0.0011821 -0.0617391 0.158843 -0.985372 102 88 135
0.000252319 -8.90788e-07 -0.00118254 -0.0413296 0.177449 -0.983261 103 89 136
0.000487847 0.00027463 -0.0011396 -0.0289745 0.184955 -0.98232 122 108 151
0.000482823 0.000275161 -0.00114474 -0.0156899 0.19726 -0.980225 119 105 149
0.00035748 0.00061538 -0.00109066 -0.0102814 0.133266 -0.991027 105 92 142
0.000248755 0.000946803 -0.00104555 0.0675906 0.149434 -0.986458 127 127 171
0.000475745 0.00122559 -0.000982278 0.000414128 0.16374 -0.986504 109 96 145
0.000363692 0.00156438 -0.000945207 0.0218349 0.150636 -0.988348 173 157 184
0.000255148 0.00189422 -0.00089888 0.0191003 0.0783644 -0.996742 181 170 190
0.000484915 0.0021623 -0.000856525 -0.0411336 0.0877431 -0.995293 165 150 179
0.000470785 0.00217056 -0.000860146 -0.0306614 0.0837677 -0.996013 169 154 182
0.000321563 0.0024959 -0.000803718 -0.00599982 0.168602 -0.985667 182 172 193
0.000204096 0.0028319 -0.000754652 -0.0489273 0.171382 -0.983989 172 169 194
0.000460587 0.00310495 -0.00069007 -0.0719305 0.28365 -0.956226 190 177 193
0.000400656 0.00347387 -0.000577181 -0.0429896 0.302933 -0.952041 182 174 195
0.000280531 0.00371863 -0.000209998 0.0222123 0.572538 -0.819578 178 172 192
0.000241711 0.00404684 -8.07204e-05 -0.208471 0.51763 -0.829819 193 178 192
-5.71041e-06 0.00407982 -0.000231421 -0.158452 0.552323 -0.818434 186 173 185
0.000131459 0.00435061 0.000287572 -0.0527626 0.69385 -0.718184 105 92 144
-0.000121107 0.00420135 0.000129705 -0.0562402 0.531622 -0.845113 187 175 192
-0.000178465 0.0044336 0.000365908 -0.0559607 0.736484 -0.674136 91 85 142
8.78466e-05 0.00460579 0.000475797 -0.00185319 0.686426 -0.727197 51 40 117
6.42439e-05 0.00491627 0.000615984 0.136877 0.756918 -0.639014 54 44 118
-0.000201058 0.0048001 0.000470078 -0.111092 0.731977 -0.672212 43 42 125
-0.000230969 0.00502914 0.000673321 0.0568447 0.739105 -0.671187 48 53 140
-9.37177e-05 -0.00425888 -0.000938731 0.000727325 -0.504069 -0.863663 52 41 108
-0.000281973 -0.00456628 -0.000746991 0.00856862 -0.541181 -0.840863 89 80 136
7.74592e-05 -0.00392284 -0.00108908 0.00182165 -0.416059 -0.909336 158 146 177
-0.000145859 -0.00360432 -0.00122142 -0.0134439 -0.322794 -0.946374 170 158 183
2.16047e-05 -0.00323406 -0.00133663 0.0172139 -0.262541 -0.964767 68 54 114
0.000182343 -0.0028259 -0.00145263 -0.0325625 -0.145177 -0.98887 76 61 120
3.42202e-06 -0.00245899 -0.00148263 -0.0862608 -0.0528387 -0.99487 185 169 190
7.20467e-05 -0.00213712 -0.0014764 -0.0842105 0.0828895 -0.992994 190 174 188
0.000208545 -0.00214152 -0.00148108 -0.049507 0.0539511 -0.997316 189 173 187
0.000276341 -0.00182685 -0.0014709 -0.0921831 0.0419232 -0.994859 187 172 189
0.000115869 -0.00149045 -0.00144782 -0.0713379 0.166371 -0.983479 180 166 189
-2.04849e-05 -0.00115424 -0.00137096 -0.0373361 0.168058 -0.985069 117 103 143
0.000220742 -0.000516053 -0.00127092 -0.0652149 0.154987 -0.985762 112 98 141
5.02308e-05 -0.000295314 -0.00122704 -0.00047273 0.163525 -0.986539 140 124 160
-7.51639e-05 3.81543e-05 -0.00116855 0.0159707 0.186188 -0.982384 180 168 188
9.16959e-05 -0.0001796 -0.00121788 0.0219976 0.168524 -0.985452 135 120 157
0.000135537 0.000336333 -0.00113362 -0.0372658 0.152662 -0.987576 164 149 179
0.000130332 0.000338442 -0.00113999 -0.021669 0.151752 -0.988181 166 151 180
-5.38488e-06 0.000647027 -0.0010596 -0.00370266 0.11062 -0.993856 174 168 192
0.000125404 0.00129176 -0.000977377 0.00485338 0.166368 -0.986051 178 171 194
7.48255e-06 0.0016317 -0.000931348 -0.0117125 0.124499 -0.992151 164 162 190
-0.000122179 0.00181897 -0.00088766 -0.100944 -0.014209 -0.994791 143 148 186
-0.000209237 0.002268 -0.000776947 -0.00906679 0.142896 -0.989696 149 153 189
-0.000168028 0.00227992 -0.000868034 -0.0501198 0.149222 -0.987533 150 155 192
-0.000207916 0.00223974 -0.000833623 -0.0501961 0.139499 -0.988949 152 155 190
0.000112248 0.00221447 -0.000848373 -0.00266173 0.058154 -0.998304 157 157 187
-5.96216e-05 0.00284728 -0.000710136 0.103429 0.300944 -0.948016 137 146 189
-0.000127032 0.00328285 -0.00083221 -0.078499 0.453989 -0.887543 146 150 185
8.12429e-05 0.00347346 -0.000697961 -0.142212 0.60396 -0.784225 139 148 188
-0.000231064 0.00354839 -0.000616576 -0.0254816 0.646808 -0.762227 169 164 186
-0.000305154 0.00373954 -0.000353895 -0.24073 0.546503 -0.802112 183 173 185
2.47806e-05 0.00371184 -0.000480268 -0.115155 0.535788 -0.836463 166 164 190
-0.000332356 0.00410769 -0.000102023 -0.0119557 0.675632 -0.737142 191 178 188
-0.000420666 0.00435831 0.000123151 -0.0317762 0.822595 -0.567739 152 145 178
-0.000399713 0.00436985 0.000120209 -0.0355132 0.865308 -0.499982 157 149 180
-0.000505473 0.00476898 0.000353251 -0.0582143 0.203946 -0.97725 48 63 159
-0.000683734 0.00527199 0.000862132 -0.267929 0.778678 -0.567339 51 70 165
-0.000656488 -0.0051726 -0.000229329 0.0320569 -0.6942 -0.719068 173 163 187
-0.00046245 -0.00488332 -0.000526141 0.00697575 -0.59977 -0.800142 173 163 186
-0.000686135 -0.0046158 -0.000747729 0.0658767 -0.542869 -0.83723 89 78 132
-0.000498597 -0.00429401 -0.000919016 -0.000554516 -0.511722 -0.859152 57 46 110
-0.000329155 -0.00395727 -0.00107148 -0.0058433 -0.416749 -0.909003 147 135 170
-0.000549661 -0.0036349 -0.001219 -0.0219807 -0.312206 -0.94976 180 167 186
-0.000377986 -0.00328017 -0.00133526 0.0303756 -0.285619 -0.957862 147 132 163
-0.000223554 -0.00292514 -0.00142221 0.030928 -0.236379 -0.971169 148 135 170
-0.000361244 -0.00207329 -0.00145721 -0.097279 0.0686288 -0.992888 130 115 151
-8.84638e-05 -0.00179319 -0.00145834 -0.121033 0.0733139 -0.989938 166 152 177
-0.000247957 -0.00143556 -0.0014177 -0.0456143 0.120237 -0.991696 138 121 157
-0.000373455 -0.00106518 -0.00138368 0.111287 0.128125 -0.985494 182 169 188
-0.000150233 -0.000811205 -0.00130763 0.120468 0.167932 -0.97841 158 145 174
-0.000243767 -0.000475684 -0.00126604 0.00856932 0.120675 -0.992655 185 172 190
-0.000303128 -0.000231682 -0.00122334 0.0196099 0.143609 -0.98944 171 164 185
-0.000466717 9.05405e-05 -0.00113261 -0.10336 0.109032 -0.98865 139 145 186
-0.000234827 0.000383337 -0.00110454 0.0179486 0.121327 -0.99245 164 161 189
-0.000442956 0.000773525 -0.000963316 -0.0770979 0.126278 -0.988994 156 157 189
-0.000189785 0.00101408 -0.00100301 -0.0206018 0.158465 -0.98715 143 149 188
-0.00032212 0.00135036 -0.000953001 -0.0370515 0.104299 -0.993855 137 143 185
-0.000475579 0.00171306 -0.00090996 0.00599458 0.145002 -0.989413 173 168 193
-0.000472612 0.00188593 -0.000883366 -0.0449579 0.216328 -0.975286 174 168 192
-0.000510194 0.00234598 -0.000885896 0.0518751 0.138839 -0.988956 185 174 192
-0.000539786 0.00237648 -0.00082704 0.0552366 0.133184 -0.989551 183 172 190
-0.000532108 0.00235768 -0.000883894 0.188818 0.191857 -0.963088 177 169 188
-0.000291727 0.00262023 -0.00081244 0.0698233 0.184113 -0.980422 172 168 195
-0.000432838 0.0029988 -0.000737452 0.14313 0.191169 -0.971065 190 178 193
-0.000502177 0.00329509 -0.00069283 -0.0781963 0.452649 -0.888253 185 175 190
-0.000542348 0.00364322 -0.000547352 -0.00219424 0.731238 -0.68212 186 174 185
-0.000884334 0.00481358 0.000467725 -0.218598 0.369166 -0.903289 52 68 160
-0.000639964 0.0050414 0.000565907 -0.165557 0.516749 -0.839977 47 66 159
-0.00103841 0.00528704 0.00104984 -0.115813 0.81985 -0.560744 129 132 180
-0.00097947 0.00506649 0.000700189 -0.0124798 0.535435 -0.844484 107 116 177
-0.00105411 -0.00521424 -0.00022903 0.0357284 -0.693742 -0.719337 63 61 125
-0.00107065 -0.00465542 -0.000705609 0.0157525 -0.56728 -0.823374 107 100 149
-0.000863949 -0.00491907 -0.000502793 0.0440763 -0.634786 -0.771429 147 139 176
-0.000895979 -0.00432239 -0.000896597 0.0319643 -0.478696 -0.877398 149 138 172
-0.000719683 -0.00398147 -0.00107592 0.0110412 -0.455257 -0.890292 167 155 180
-0.000793237 -0.00331862 -0.00132325 -0.0480715 -0.332023 -0.942046 155 141 168
-0.000617873 -0.00297442 -0.00142903 0.0350118 -0.240466 -0.970026 152 139 167
-0.000471592 -0.00261901 -0.00147806 -0.0415826 -0.187414 -0.9814 151 137 166
-0.00071766 -0.00230653 -0.00147493 -0.0859211 0.0769947 -0.993322 177 167 190
-0.000779577 -0.00196011 -0.00147164 0.0567265 0.0569961 -0.996761 158 155 185
-0.00047345 -0.00172644 -0.00144093 0.0338854 0.130071 -0.990926 175 159 185
-0.000620318 -0.0013491 -0.00140126 0.0486674 0.165035 -0.985086 184 172 191
-0.000729367 -0.00102206 -0.00135356 -0.0593618 0.108493 -0.992323 163 160 188
-0.000492168 -0.000768282 -0.00129467 0.0411125 0.177992 -0.983172 171 164 188
-0.000495641 -0.000744775 -0.00129819 0.0267421 0.172067 -0.984722 173 166 190
-0.000592267 -0.000418814 -0.00126856 -0.040085 0.193724 -0.980237 142 147 184
-0.000693723 -0.000180436 -0.00118573 -0.164382 0.0469837 -0.985277 136 141 181
-0.000821759 0.000161627 -0.00113544 -0.044452 0.150835 -0.987559 181 172 193
-0.00058961 0.000437765 -0.00109613 -0.0239598 0.140321 -0.989816 157 156 189
-0.000838158 0.000756381 -0.000900278 0.494804 -0.121809 -0.860425 175 166 190
-0.000812456 0.000767895 -0.000959942 0.191932 0.0643941 -0.979294 166 160 185
-0.000535279 0.00108751 -0.00102891 -0.0252535 0.132451 -0.990867 164 161 191
-0.00066238 0.00142816 -0.000992112 0.0200562 0.0112688 -0.999735 175 166 189
-0.000797583 0.00137324 -0.000870438 0.405749 0.0912347 -0.90942 166 158 184
-0.000826044 0.00171692 -0.000818084 0.44963 0.185326 -0.873777 167 159 185
-0.000839034 0.00174891 -0.000912874 0.475665 0.437592 -0.763057 162 155 183
-0.000743102 0.00208991 -0.000969809 0.0250288 0.109603 -0.99366 174 165 188
-0.000767312 0.00208654 -0.000929417 0.0629213 0.131756 -0.989283 173 164 187
-0.000797834 0.00212466 -0.000891799 0.256533 0.180065 -0.949614 169 161 185
-0.000825854 0.00217654 -0.000876193 0.269084 0.189543 -0.944282 169 162 185
-0.000669519 0.00271171 -0.000773852 -0.082742 0.187019 -0.978866 188 175 190
-0.000690383 0.00262065 -0.000703018 0.1009 0.203363 -0.97389 188 175 190
-0.000837638 0.00250229 -0.000872677 0.0156312 0.16832 -0.985608 176 167 188
-0.000789032 0.00305832 -0.000733742 0.0404781 0.366858 -0.929396 184 173 188
-0.000824109 0.00286206 -0.000790866 0.187375 0.260904 -0.947005 182 171 187
-0.000861233 0.00339629 -0.000642771 -0.131418 0.627359 -0.76756 187 175 188
-0.00109027 0.00376432 -0.00012389 -0.523946 0.0820719 -0.847788 197 182 192
-0.00121649 0.00490575 0.000610693 0.0149778 0.138249 -0.990284 144 148 194
-0.00132473 0.00511804 0.000980018 0.0546391 0.731307 -0.679855 170 163 185
-0.00174476 0.00575481 0.0019358 -0.0579459 0.85511 -0.515198 49 63 156
-0.00127717 -0.00496032 -0.000471679 0.0371789 -0.642166 -0.765663 48 50 122
-0.00130424 -0.0043569 -0.000880515 -0.00187354 -0.479277 -0.877662 114 108 153
-0.00113336 -0.00401877 -0.00104785 -0.00679425 -0.449321 -0.893344 179 167 186
-0.0009627 -0.00367773 -0.00118667 0.00913857 -0.372859 -0.927843 175 161 181
-0.00119339 -0.00337429 -0.0013161 0.0632047 -0.301682 -0.951311 180 167 185
-0.0010379 -0.00297077 -0.00143406 0.0596723 -0.186024 -0.980731 177 167 188
-0.000862211 -0.00264241 -0.00148311 -0.0280012 -0.109287 -0.993616 160 153 182
-0.00111969 -0.00227284 -0.00149793 -0.000304328 -0.0329109 -0.999458 142 146 185
-0.00113953 -0.00188901 -0.00146385 -0.055265 0.096685 -0.993779 138 145 186
-0.000870763 -0.00160277 -0.00147285 0.102831 0.140468 -0.98473 154 156 188
-0.00094673 -0.000987731 -0.0013539 0.0476968 0.166291 -0.984923 159 158 189
-0.0010765 -0.000644965 -0.00130573 -0.0446036 0.186582 -0.981427 183 172 191
-0.00123196 0.000146885 -0.00104235 0.403074 -0.125626 -0.906505 180 168 188
-0.00121958 0.000175449 -0.0010647 0.252759 -0.0596118 -0.965691 178 165 187
-0.00124804 4.63811e-05 -0.00108327 0.167063 -0.00132903 -0.985945 183 170 188
-0.00114902 0.00077321 -0.00108555 0.587749 -0.0877939 -0.804266 75 73 129
-0.000972337 0.00107612 -0.000963668 0.470966 -0.010896 -0.882084 112 107 150
-0.00112118 0.00139484 -0.00100974 0.470817 0.0903612 -0.877591 55 55 122
-0.00108638 0.00178891 -0.00105282 0.641497 0.137494 -0.754703 59 58 123
-0.00108643 0.00198942 -0.00100139 0.302581 0.201154 -0.931655 75 72 129
-0.00106963 0.00192863 -0.000975865 0.30943 0.162417 -0.93695 79 76 132
-0.00113849 0.00232394 -0.000919554 0.357592 0.224073 -0.906598 107 102 149
-0.000991059 0.00213324 -0.000944017 0.225398 0.148401 -0.962898 132 126 165
-0.00116755 0.0026594 -0.000831704 0.334961 0.265594 -0.904025 147 142 175
-0.00114374 0.00299744 -0.000863613 0.214071 0.135746 -0.96734 161 153 182
-0.00127578 0.00320248 -0.000696056 0.496765 0.4311 -0.753245 165 156 182
-0.00140152 0.00366171 -0.000475793 0.506058 0.549796 -0.664552 165 156 180
-0.00113578 0.00345215 -0.000512765 0.442663 0.483488 -0.755175 185 173 185
-0.00132256 0.00407069 -0.000379329 0.317961 0.747751 -0.582899 154 145 174
-0.00134565 0.00428501 -0.000113908 0.153139 0.775871 -0.612023 99 95 144
-0.00141521 0.00446067 0.000239919 -0.0332175 0.73361 -0.678758 51 60 144
-0.00148405 0.00472277 0.000506735 -0.0369317 0.654053 -0.755547 103 108 166
-0.00152042 0.00500757 0.000651687 0.00948152 0.446781 -0.894593 176 167 185
-0.00201731 0.00562739 0.0017138 -0.0724552 0.795066 -0.602179 72 76 145
-0.00154981 -0.00470448 -0.000686323 -0.00821458 -0.680118 -0.733057 47 52 125
-0.00172281 -0.00501505 -0.000477931 0.00257437 -0.660215 -0.751073 120 118 162
-0.00175378 -0.00442812 -0.000879609 0.0349025 -0.41427 -0.909485 46 53 130
-0.0015473 -0.00405371 -0.00102159 -0.0804161 -0.441262 -0.893767 106 100 147
-0.00137966 -0.0036869 -0.00119563 -0.0345127 -0.405158 -0.913595 180 167 184
-0.00159575 -0.00340347 -0.00132855 0.0106267 -0.420011 -0.907457 179 167 184
-0.00144287 -0.00300511 -0.00141495 -0.0216865 -0.181714 -0.983112 181 169 187
-0.00127481 -0.00265307 -0.0014716 -0.0673611 -0.141549 -0.987637 145 147 181
-0.00137775 -0.00214059 -0.00150985 0.0843995 0.0537625 -0.99498 157 156 186
-0.00147562 -0.0017971 -0.0015083 0.115956 0.146694 -0.982362 180 171 189
-0.00122917 -0.00154509 -0.00145473 0.0265565 0.158211 -0.987048 159 158 189
-0.00154294 -0.00119205 -0.00135917 -0.0861363 0.133105 -0.987352 185 173 190
-0.00117601 -0.00125327 -0.00141279 -0.00547515 0.108925 -0.994035 168 165 193
-0.00146748 -0.000667689 -0.00115838 0.0945435 0.010119 -0.995469 185 173 188
-0.00130987 -0.000931615 -0.00132394 -0.0755061 0.189851 -0.978905 180 170 191
-0.00146979 -0.0006485 -0.0012039 0.0350911 0.0875904 -0.995538 185 173 187
-0.00122676 -0.000331712 -0.00122699 -0.00100721 0.171512 -0.985181 186 171 185
-0.00142383 -0.000114056 -0.0010992 0.23944 -0.0869274 -0.967012 175 164 185
-0.00143742 -0.000132631 -0.0010999 0.228794 -0.0923357 -0.969086 176 164 185
-0.0015775 0.000173704 -0.00116007 0.375924 -0.19024 -0.906913 72 70 130
-0.00135492 0.000475539 -0.00114687 0.537253 -0.183626 -0.823189 71 69 129
-0.00148128 0.000784309 -0.00121086 0.462866 -0.0702238 -0.883642 50 58 139
-0.0012966 0.00108869 -0.00111296 0.458842 -0.00995953 -0.888462 49 56 132
-0.00134772 0.00165798 -0.00124648 0.599835 0.164476 -0.783036 45 56 142
-0.0012979 0.00204931 -0.00108958 0.651042 0.280754 -0.70521 50 54 131
-0.00149834 0.00235686 -0.00116221 0.39539 0.393169 -0.830112 43 54 141
-0.00144735 0.00248994 -0.000940961 0.30105 0.240071 -0.922894 48 51 125
-0.00147722 0.0027288 -0.00111182 0.69303 0.29954 -0.655732 44 51 132
-0.0014511 0.0028681 -0.000964375 0.487101 0.251422 -0.836373 56 58 127
-0.00147468 0.0030805 -0.000897293 0.668267 0.466397 -0.579562 67 66 128
-0.00146675 0.00316115 -0.000759128 0.65951 0.333369 -0.673729 96 93 145
-0.00141628 0.00337422 -0.000713737 0.561646 0.361294 -0.744325 138 132 168
-0.00168737 0.00360202 -0.000678598 0.433061 0.605907 -0.667335 57 59 128
-0.00163869 0.00400822 -0.000609209 0.749394 0.521806 -0.407587 54 54 126
-0.00160974 0.00425187 -0.000313461 0.462594 0.736843 -0.49302 52 55 125
-0.00168189 0.00435607 6.97367e-05 0.130974 0.776356 -0.616535 42 52 136
-0.0017251 0.00455822 0.000323996 -0.00175171 0.624042 -0.781389 52 62 145
-0.0020486 0.00468113 0.000393662 0.119369 0.648493 -0.751803 56 63 135
-0.00179894 0.00481304 0.000575518 0.0314764 0.724303 -0.688763 151 148 181
-0.00212298 0.00489835 0.00070013 0.14776 0.81887 -0.554634 157 151 181
-0.00188132 0.00502879 0.000905965 -0.0266983 0.798843 -0.600947 184 170 183
-0.0021734 0.00509947 0.00097882 0.057061 0.826375 -0.560221 181 169 184
-0.00219778 0.00533079 0.00118584 0.177224 0.822561 -0.540356 172 161 183
-0.00227068 0.00549953 0.00154105 0.0529667 0.70103 -0.711161 102 100 153
-0.00232426 0.00572046 0.00178833 0.0256758 0.719577 -0.693938 51 62 149
-0.00250616 -0.00556115 9.99609e-05 0.0271873 -0.671862 -0.740177 161 155 183
-0.00251869 -0.00555956 0.00010226 0.0261234 -0.670737 -0.741235 162 155 183
-0.0019609 -0.00474311 -0.000670229 0.0377897 -0.569794 -0.820919 94 95 149
-0.00214705 -0.00502419 -0.0004479 0.027111 -0.66635 -0.745146 163 155 176
-0.0020149 -0.00409542 -0.000996123 -0.00150682 -0.410064 -0.912056 46 53 131
-0.00179332 -0.00373202 -0.0011777 -0.0658898 -0.489122 -0.869722 119 113 155
-0.00161549 -0.00336651 -0.00131051 -0.00892773 -0.324894 -0.945708 181 169 186
-0.00186477 -0.00304285 -0.00139444 0.0259589 -0.251347 -0.967549 181 169 185
-0.00173296 -0.00265365 -0.00143362 -0.0837648 -0.011998 -0.996413 184 171 187
-0.0017282 -0.0020596 -0.00153014 0.12232 0.109932 -0.986383 184 172 187
-0.00184775 -0.00173377 -0.00146104 -0.0302518 0.113241 -0.993107 189 175 189
-0.00158809 -0.00146811 -0.00143451 0.0289898 0.136587 -0.990204 187 174 189
-0.00185851 -0.000694692 -0.00116146 0.16898 -0.0758982 -0.982693 189 175 190
-0.0018838 -0.000704481 -0.00116381 0.167597 -0.0668091 -0.98359 189 175 190
-0.00185476 -0.000706276 -0.00116554 0.165878 -0.0638876 -0.984075 189 175 190
-0.00163452 -0.000822148 -0.00130778 -0.0380904 0.190839 -0.980882 189 175 189
-0.0016678 -0.000877609 -0.00128762 0.0233526 0.159503 -0.986921 189 175 190
-0.00164268 -0.000405644 -0.00113093 0.176181 -0.0742188 -0.981556 185 171 187
-0.00165111 -0.000404766 -0.00115487 0.123466 -0.00705734 -0.992324 184 171 187
-0.00181863 -0.000131345 -0.00115823 0.195993 -0.0600773 -0.978763 113 107 154
-0.0018173 -0.000179845 -0.00115559 0.266545 -0.131185 -0.954853 127 120 161
-0.0017815 -6.61555e-05 -0.00118114 0.242752 -0.125838 -0.961892 99 94 144
-0.00161561 0.000103174 -0.00111926 0.214508 -0.0487917 -0.975502 89 84 139
-0.00176176 0.000420049 -0.00116154 0.122327 -0.0344991 -0.991891 56 62 143
-0.00185563 0.000719137 -0.00120346 0.164148 -0.0934164 -0.982002 49 64 157
-0.00191561 0.000733358 -0.00116286 0.0999085 -0.0354556 -0.994365 49 65 159
-0.00167296 0.00100449 -0.00111023 0.121443 -0.0656749 -0.990424 48 62 152
-0.00193557 0.0013241 -0.000897816 -0.198929 0.164918 -0.966038 45 63 163
-0.00165364 0.00174637 -0.00103002 -0.238349 -0.127992 -0.962708 45 58 153
-0.00166398 0.00186031 -0.00103849 -0.245548 -0.232778 -0.941021 45 58 152
-0.00179952 0.0025361 -0.00115439 0.380437 0.207855 -0.901145 45 58 151
-0.00180559 0.00289273 -0.00111984 0.418707 0.227323 -0.879209 45 58 149
-0.00173731 0.00306057 -0.000966307 0.304052 0.334584 -0.891968 45 54 140
-0.00181909 0.0032151 -0.0010085 0.367665 0.353648 -0.860091 45 56 146
-0.00177068 0.00338403 -0.00084401 0.365931 0.44289 -0.8185 45 53 136
-0.00167877 0.00346294 -0.000793062 0.464052 0.519424 -0.717534 48 53 127
-0.00190717 0.00391967 -0.000776376 0.703593 0.551857 -0.447673 47 57 143
-0.00236619 0.00478914 0.000494118 0.129281 0.670551 -0.730512 47 53 128
-0.00244201 0.00501117 0.000780719 0.128106 0.820565 -0.557013 88 86 140
-0.00250553 0.00544525 0.00124548 0.521176 0.690746 -0.501245 74 73 136
-0.00249515 0.00541245 0.00127704 0.50351 0.792308 -0.344567 83 81 139
-0.00257763 0.0055926 0.00161557 0.330069 0.788475 -0.519001 49 60 147
