ply
format ascii 1.0
element vertex 175
property float x
property float y
property float z
property float nx
property float ny
property float nz
property uchar diffuse_red
property uchar diffuse_green
property uchar diffuse_blue
end_header
0.0115066 0.00393504 -0.0001619 0.0165714 0.504715 -0.863127 92 112 217
0.0109938 -0.000690502 -0.000217623 0.0122177 0.108618 -0.994008 67 91 201
0.00823362 -0.00192537 -0.00143965 0.338243 0.333865 -0.879844 42 55 153
0.00759058 -0.0025088 -0.00153043 -0.237129 0.0436797 -0.970496 195 179 193
0.00717597 0.00024512 -0.000909982 0.23676 0.109092 -0.965424 63 75 167
0.0070151 0.00263819 -0.000590426 -0.0041248 0.143447 -0.989649 200 173 141
0.00674576 -0.000268747 -0.00108865 0.123669 0.263979 -0.956568 182 167 193
0.00681587 0.00510719 0.000147929 0.0274692 0.741129 -0.6708 172 32 32
0.0064534 -0.00122553 -0.0012723 0.125412 0.16528 -0.978241 62 47 122
0.00631883 0.000128534 -0.00105372 0.0584694 0.161081 -0.985208 76 61 126
0.00655753 0.00129983 -0.00084841 0.0679386 0.207643 -0.975842 181 89 86
0.0064711 0.0033589 -0.000559029 -0.0545396 0.115153 -0.991849 198 110 114
0.00589536 -0.00174472 -0.00140095 0.0125929 0.0545732 -0.99843 193 178 193
0.00609729 0.000746296 -0.00098359 0.0768788 0.15853 -0.984356 195 175 182
0.00629469 0.00407537 -0.00044971 -0.0384396 0.35299 -0.934837 187 111 119
0.0062302 0.0051701 0.000175476 -0.0844194 0.74408 -0.662735 171 29 29
0.00579602 0.00560039 0.000840432 0.0535348 0.904292 -0.423543 57 65 131
0.00554151 -0.00172002 -0.00137203 0.0307684 0.190071 -0.981288 188 174 194
0.00542366 1.50135e-05 -0.00112853 0.0330815 0.177021 -0.983651 69 54 121
0.00543572 0.00281746 -0.000699671 0.0308683 0.114308 -0.992965 197 181 189
0.00535222 0.00403272 -0.00046326 0.0180904 0.489911 -0.871584 192 175 181
0.00495818 -0.0012814 -0.00136048 0.0719054 0.104675 -0.991904 55 43 117
0.00460672 0.00450028 -0.000166019 -0.160339 0.714083 -0.681451 154 141 169
0.00428019 0.000539582 -0.00106495 0.0425762 0.129593 -0.990653 159 146 180
0.00429517 0.00325856 -0.000593525 0.158493 0.186056 -0.969672 170 157 181
0.00419234 0.00510202 0.00034338 0.0943575 0.858054 -0.504817 183 170 183
0.00383312 0.00361155 -0.000470961 -0.134214 0.255452 -0.957461 50 38 118
0.00363222 0.00247462 -0.000785423 0.0173574 0.131491 -0.991166 73 60 125
0.00367563 0.00449053 -0.000113829 -0.0462473 0.595394 -0.802101 51 38 110
0.00317541 -0.000945672 -0.00133819 0.0119802 0.156844 -0.987551 181 165 190
0.0034212 0.00594841 0.00237291 0.418478 0.767135 -0.486187 197 185 198
0.00329251 -0.000361326 -0.00121384 0.0129191 0.112878 -0.993525 186 171 189
0.00342728 0.00315956 -0.000651889 -0.00953635 0.161469 -0.986832 191 176 196
0.00333534 0.00457774 -9.79088e-05 -0.0704283 0.196552 -0.977961 74 58 120
0.00288781 0.00014723 -0.00115455 0.050386 0.0723616 -0.996105 77 63 126
0.00284273 0.00564571 0.00169887 0.131232 0.860803 -0.491729 198 185 197
0.00245216 -0.00184457 -0.00148112 -0.00626628 0.152831 -0.988233 120 106 156
0.00224861 -0.00106228 -0.00136456 0.0199004 0.176472 -0.984105 87 73 132
0.00257697 0.00556179 0.00151592 0.0758951 0.848928 -0.52303 173 163 187
0.00282943 0.00203797 -0.000834511 0.0159141 0.194606 -0.980752 93 80 136
0.00209762 0.0051663 0.000752629 0.0559863 0.874413 -0.481941 91 83 144
0.00158991 -0.00190382 -0.00148375 -0.00935264 0.0533689 -0.998531 177 163 187
0.00164782 0.00258636 -0.000777102 0.0373449 0.185773 -0.981883 59 48 117
0.00111792 -0.00134676 -0.00142877 0.00936206 0.204925 -0.978733 50 37 113
0.00124582 -0.000763307 -0.00130885 0.00745282 0.249578 -0.968325 186 171 192
0.00141516 0.0032246 -0.000639198 -0.0588915 0.211915 -0.975512 192 178 193
0.000888798 0.000234517 -0.00115935 -0.00366039 0.11906 -0.99288 120 105 151
0.00126707 0.00463881 0.000461258 -0.0135567 0.71127 -0.702788 55 48 121
0.000948622 0.000821561 -0.00106082 -0.0221486 0.182754 -0.982909 177 162 187
0.000419775 -0.00121441 -0.00140124 -0.0303818 0.158574 -0.986879 91 76 134
0.000832879 0.00304164 -0.000691231 0.100686 0.275092 -0.956131 93 78 133
0.000248755 0.000946803 -0.00104555 0.0675906 0.149434 -0.986458 127 127 171
0.000460587 0.00310495 -0.00069007 -0.0719305 0.28365 -0.956226 190 177 193
0.000280531 0.00371863 -0.000209998 0.0222123 0.572538 -0.819578 178 172 192
0.000390479 0.00451475 0.000411135 -0.0824755 0.681172 -0.727463 52 39 117
0.000255148 0.00189422 -0.00089888 0.0191003 0.0783644 -0.996742 181 170 190
-0.000729367 -0.00102206 -0.00135356 -0.0593618 0.108493 -0.992323 163 160 188
-0.000201058 0.0048001 0.000470078 -0.111092 0.731977 -0.672212 43 42 125
-0.000690383 0.00262065 -0.000703018 0.1009 0.203363 -0.97389 188 175 190
-0.00117601 -0.00125327 -0.00141279 -0.00547515 0.108925 -0.994035 168 165 193
-0.000532108 0.00235768 -0.000883894 0.188818 0.191857 -0.963088 177 169 188
-0.00094673 -0.000987731 -0.0013539 0.0476968 0.166291 -0.984923 159 158 189
-0.00201208 0.0043864 0.00020945 0.048389 0.682908 -0.7289 51 63 151
-0.00374403 0.00381788 -8.7979e-05 -0.0982429 0.586684 -0.803835 53 68 136
-0.00438273 0.00540144 0.0014588 0.042206 0.836085 -0.546973 69 80 101
-0.00457474 0.000957406 -0.000968864 -0.0393021 0.177521 -0.983332 130 122 44
-0.00452815 0.00331575 -0.000198581 -0.0605017 0.614084 -0.786918 81 87 89
-0.00459583 0.00480915 0.000742526 0.0581352 0.794141 -0.604947 60 74 112
-0.00444088 0.00429301 0.000220065 -0.052437 0.641456 -0.765365 61 74 120
-0.0049537 0.00201273 -0.000771027 -0.0159152 0.188921 -0.981864 115 113 73
-0.00544623 0.00146135 -0.000877178 -0.0671867 0.187213 -0.980019 69 78 90
-0.00528654 0.00364738 6.88516e-05 -0.0390409 0.614204 -0.788181 57 74 153
-0.00544886 0.00349509 -0.000307259 -0.162765 0.364567 -0.916842 59 75 127
-0.00575035 0.00397189 0.000423009 -0.0888452 0.745608 -0.660436 75 86 103
-0.00620744 0.00295218 -0.000550389 -0.00223928 0.351414 -0.936218 116 110 31
-0.00691905 0.00320265 -0.000583035 0.113323 0.411278 -0.904438 49 69 155
-0.00679056 0.00402409 2.37697e-05 0.321424 0.597341 -0.734758 56 72 134
-0.00704134 0.00476915 0.000288333 0.554545 0.735018 -0.390164 41 63 157
0.0114478 0.00594717 0.00131845 0.437684 0.813381 -0.3832 102 116 189
0.0113621 0.00414168 7.95513e-06 -0.171715 0.325264 -0.929902 76 100 212
0.00946252 0.000129473 -0.000688605 0.452059 0.368416 -0.81235 147 161 194
0.00944887 0.00116015 -0.00053943 -0.345104 -0.0856557 -0.934648 172 172 196
0.00925782 -0.00188963 -0.00114437 0.13093 0.111483 -0.985104 199 185 202
0.00753701 0.00103754 -0.000736103 0.226688 0.0526328 -0.972544 50 67 161
0.00724546 -0.000886137 -0.0010467 0.262785 0.203563 -0.943137 116 116 180
0.00709417 -0.00225035 -0.00130166 -0.0212648 0.0666262 -0.997551 195 180 192
0.00700733 0.00390329 -0.000437191 -0.11025 0.459192 -0.881469 198 177 160
0.00603094 -0.000810021 -0.00126045 0.0113709 0.186325 -0.982423 51 38 119
0.00617573 0.00465221 -0.000178067 -0.0811182 0.738057 -0.669844 184 110 113
0.00608872 0.00358579 -0.000552918 0.0624484 0.179191 -0.98183 192 102 104
0.00579584 0.00174861 -0.000829971 0.113986 0.149703 -0.982139 174 36 36
0.0057522 0.00580026 0.00108029 0.0402347 0.79424 -0.60627 50 67 161
0.0053904 0.00372158 -0.000466549 -0.0198379 0.469201 -0.882869 198 183 189
0.00502362 0.0050583 0.000445692 -0.17618 0.835379 -0.520675 159 145 155
0.00414681 -0.00173929 -0.00148033 0.00180844 0.0246341 -0.999695 192 177 192
0.00408983 -0.00079132 -0.00128728 0.00506189 0.203704 -0.97902 48 35 115
0.00431765 0.00234731 -0.000751831 0.0319307 0.130807 -0.990893 191 177 191
0.00371984 0.00124649 -0.000963445 0.0233936 0.169611 -0.985234 48 36 116
0.00324032 0.0047878 0.000208917 0.0244441 0.717291 -0.696345 59 47 117
0.0028162 -0.000894908 -0.00130095 0.0230135 0.227773 -0.973442 173 158 181
0.00273921 0.00448748 -0.000193712 -0.114191 0.439445 -0.890981 178 165 183
0.00265337 0.00471646 0.000277897 -0.0101629 0.737866 -0.674871 193 179 191
0.00211273 -0.00165502 -0.00147065 0.0132046 0.169846 -0.985382 103 90 147
0.00138944 0.00413501 -2.38477e-05 -0.0981389 0.470735 -0.876799 189 176 190
0.000204096 0.0028319 -0.000754652 -0.0489273 0.171382 -0.983989 172 169 194
0.000241711 0.00404684 -8.07204e-05 -0.208471 0.51763 -0.829819 193 178 192
-0.000466717 9.05405e-05 -0.00113261 -0.10336 0.109032 -0.98865 139 145 186
-0.000592267 -0.000418814 -0.00126856 -0.040085 0.193724 -0.980237 142 147 184
-0.00332605 -0.00163374 -0.00137553 0.32466 -0.098029 -0.940737 165 156 185
-0.00406568 -0.00148636 -0.00141283 -0.0656477 0.208786 -0.975755 42 56 149
-0.00419674 -0.00113095 -0.00132828 -0.0906829 0.280803 -0.955472 45 64 164
-0.00516112 -0.00026682 -0.00116471 -0.00936295 0.181849 -0.983282 104 109 166
-0.00464944 0.00386731 1.09307e-05 -0.0437584 0.606895 -0.793576 122 118 44
-0.00470167 0.00522028 0.00133524 0.0280129 0.859181 -0.510904 70 78 88
-0.00519325 0.00175737 -0.000846436 -0.0457619 0.134084 -0.989913 55 69 130
-0.00510386 0.00548992 0.00175378 -0.148396 0.766296 -0.625115 52 71 158
-0.00548186 0.00410491 0.000606795 -0.0958378 0.748399 -0.656289 52 70 141
-0.00632759 0.00575577 0.00215665 0.343388 0.938198 -0.0432223 61 76 126
-0.00638272 0.00360496 -0.000275396 0.0725928 0.537487 -0.840141 104 105 64
-0.00830239 0.000530157 -0.000951226 0.035547 0.212533 -0.976507 118 123 174
-0.0103221 0.00128728 -0.000713236 -0.0812615 0.183173 -0.979717 40 59 153
-0.0117341 -0.00129763 -0.00104403 -0.139245 0.346271 -0.927743 138 31 17
-0.0111882 0.00152658 -0.000518383 -0.0504919 0.232382 -0.971313 89 97 157
-0.0113889 0.0034924 -4.66638e-05 -0.0968073 0.336616 -0.936653 54 70 124
-0.0117502 0.00444871 0.00060103 0.237544 0.623555 -0.744816 72 83 87
-0.0121215 0.00218347 -0.00046408 -0.0779941 0.13652 -0.987562 38 55 137
-0.0129179 0.00546293 0.00327488 0.00630952 0.971125 -0.23849 118 114 161
0.0111399 0.00451057 -4.92505e-05 -0.258544 0.403467 -0.877706 63 90 210
0.0106023 0.00141654 -6.73157e-05 0.536729 -0.0928728 -0.838628 52 78 191
0.00945421 0.000463762 -0.000595491 0.402706 0.250675 -0.880335 156 161 188
0.00918245 0.00416511 -0.000173035 0.117963 0.0462999 -0.991938 199 186 200
0.00819148 0.0058746 0.00296121 -0.263354 0.960156 0.0935192 50 78 194
0.0075902 0.00278427 -0.000474942 0.133221 0.348589 -0.927759 196 181 194
0.00723287 -0.00246392 -0.00148788 -0.296494 0.0520676 -0.953615 194 179 191
0.00398035 0.00469664 4.09675e-05 0.087627 0.502197 -0.860302 77 65 129
0.00303462 -0.000649518 -0.00122381 0.00344278 0.2723 -0.962206 192 177 192
0.00227954 0.00368236 -0.000453342 -0.00336576 0.42382 -0.905741 50 38 116
0.00166319 0.000734005 -0.00108694 0.0198188 0.172719 -0.984772 124 112 157
0.00159287 0.000115846 -0.00117494 0.0126057 0.138326 -0.990306 59 46 117
-0.000122179 0.00181897 -0.00088766 -0.100944 -0.014209 -0.994791 143 148 186
-0.000230969 0.00502914 0.000673321 0.0568447 0.739105 -0.671187 48 53 140
-0.00134772 0.00165798 -0.00124648 0.599835 0.164476 -0.783036 45 56 142
-0.00169345 0.00515458 0.00114012 -0.292669 0.921337 -0.255897 194 182 193
-0.00288087 -0.00156538 -0.00130212 0.167816 -0.00710234 -0.985792 185 172 189
-0.00437853 0.00154057 -0.000890785 -0.0553894 0.163944 -0.984913 126 118 42
-0.00455856 0.00198673 -0.000820964 -0.00811856 0.163997 -0.986428 125 119 47
-0.00622749 0.00409584 0.000207467 -0.0343967 0.605163 -0.795359 117 112 31
-0.00716485 0.000134467 -0.000937029 -0.217012 0.283693 -0.934037 44 65 168
-0.0118971 0.00246385 -0.000373662 -0.110457 0.249264 -0.962116 41 57 135
-0.0131338 0.0026604 -0.000228455 0.0191726 0.290445 -0.9567 150 143 173
-0.0150817 0.00490816 0.00205063 -0.0594846 0.784297 -0.617527 36 55 161
0.00778242 0.00585376 0.000853435 -0.0210548 0.910852 -0.412195 44 67 167
0.00609519 0.00485245 0.000179692 -0.0461527 0.709154 -0.703542 188 77 83
0.0051371 0.00337511 -0.000556207 -0.23911 -0.118206 -0.963771 197 183 194
0.00394833 0.00497187 0.00018107 0.15399 0.755791 -0.636449 106 95 144
0.000882044 -0.00160483 -0.00148356 0.0446235 0.180069 -0.982641 75 62 123
-0.00635974 0.00500223 0.00110676 -0.0769414 0.814603 -0.574894 99 103 69
-0.00729873 0.00105774 -0.000892988 -0.146418 0.122779 -0.981574 40 63 164
0.00663938 -0.00279087 -0.00134832 0.185273 -0.00586148 -0.98267 162 148 177
0.00472274 -0.00153561 -0.00140208 0.0443177 0.191961 -0.980401 144 129 173
0.00476543 0.0028696 -0.000699831 -0.0591539 0.0224059 -0.997997 193 178 191
0.00401409 0.00585222 0.00170018 0.0572977 0.792515 -0.607154 166 154 172
0.0025697 0.0017874 -0.000871064 0.0012212 0.253461 -0.967345 168 153 186
0.00150161 -0.000491758 -0.00125928 0.0458679 0.105947 -0.993314 184 169 190
0.000589625 0.00513269 0.000790767 0.0688536 0.90645 -0.416664 49 65 157
-0.00250412 0.0012279 -0.00084082 0.448387 0.841888 -0.300288 45 66 171
-0.00300037 0.00371812 -0.00043061 -0.238456 0.814855 -0.528347 51 69 169
-0.0104314 0.00298853 -0.000286077 -0.111891 0.35013 -0.929994 64 76 81
0.00197384 2.69233e-05 -0.00116623 0.0269284 0.159256 -0.98687 75 62 129
0.00108919 0.00590241 0.00141823 0.563818 0.801601 0.198858 41 63 159
-0.00944175 0.00348719 -0.000222158 0.0501838 0.417887 -0.907112 44 65 150
-0.0152366 0.00396689 0.000900276 0.430807 0.465983 -0.772829 32 52 158
0.00946854 -0.000873178 -0.000940158 0.104716 0.274581 -0.955846 54 76 183
-0.00390379 0.00114961 -0.000960857 -0.00592847 0.200224 -0.979733 64 73 98
-0.0151402 0.00342189 0.000386927 0.346509 0.463529 -0.815519 38 56 162
