ply
format ascii 1.0
element vertex 240
property float x
property float y
property float z
property float nx
property float ny
property float nz
property uchar diffuse_red
property uchar diffuse_green
property uchar diffuse_blue
end_header
0.0114518 0.000828594 -0.00018583 -0.00220304 0.121354 -0.992607 169 171 220
0.0113088 0.00374075 -0.000253102 -0.0897646 0.23396 -0.968093 75 99 211
0.0113947 0.000644759 3.63843e-06 0.0633078 0.171459 -0.983155 191 186 218
0.00892804 -0.00324156 -0.00136334 0.601466 -0.233391 -0.764046 44 63 167
0.00823362 -0.00192537 -0.00143965 0.338243 0.333865 -0.879844 42 55 153
0.00801423 -0.00116216 -0.00127966 0.219754 0.155994 -0.963003 47 68 177
0.00725476 -8.87676e-05 -0.00087481 0.438279 0.100064 -0.893252 53 70 168
0.00717597 0.00024512 -0.000909982 0.23676 0.109092 -0.965424 63 75 167
0.0070151 0.00263819 -0.000590426 -0.0041248 0.143447 -0.989649 200 173 141
0.00681587 0.00510719 0.000147929 0.0274692 0.741129 -0.6708 172 32 32
0.00697852 0.000896682 -0.000885142 0.110604 0.166221 -0.979866 185 158 164
0.00675384 0.0052058 0.000421934 -0.093341 0.722085 -0.685478 169 48 42
0.00631883 0.000128534 -0.00105372 0.0584694 0.161081 -0.985208 76 61 126
0.00622786 0.00227313 -0.000733207 0.0225537 0.157231 -0.987305 198 130 135
0.00622532 0.00436705 -0.000325472 -0.0761121 0.482485 -0.872591 190 131 137
0.00621939 0.00325102 -0.000559556 0.0954249 0.211552 -0.972698 197 117 123
0.00609729 0.000746296 -0.00098359 0.0768788 0.15853 -0.984356 195 175 182
0.00611377 0.0026829 -0.000653013 0.0898292 0.146646 -0.985102 188 108 109
0.0057522 0.00580026 0.00108029 0.0402347 0.79424 -0.60627 50 67 161
0.00554316 0.00249869 -0.000708405 0.0353853 0.221605 -0.974494 202 173 154
0.00522602 0.00555729 0.000769072 -0.110797 0.828724 -0.548582 172 161 169
0.00554353 -0.00331094 -0.00136164 0.0292453 -0.235452 -0.971446 182 169 185
0.00534803 -0.00196648 -0.00142465 0.0136581 0.180642 -0.983454 185 172 197
0.00474311 0.00533739 0.000606487 0.0340569 0.954494 -0.29628 70 55 113
0.00455262 0.00471814 6.74673e-05 -0.200809 0.688637 -0.696746 86 73 122
0.00435066 0.00432572 -0.000249238 -0.0301084 0.62531 -0.779795 147 134 169
0.00418459 0.00176651 -0.00084779 0.0218402 0.221527 -0.974909 181 168 192
0.00403893 0.00537605 0.0013182 -0.256806 0.944395 -0.205349 176 163 175
0.00418085 0.000853096 -0.00102969 0.0183695 0.176735 -0.984087 180 166 190
0.00399675 -0.00380906 -0.00114581 -0.0741708 -0.304382 -0.949658 73 74 141
0.00383787 0.000920051 -0.00101829 0.00305496 0.172299 -0.98504 78 65 128
0.00384517 0.00276088 -0.000725164 0.00628978 0.148445 -0.9889 68 56 122
0.00370471 -0.00228947 -0.0015085 -0.00486241 -0.0474037 -0.998864 95 81 136
0.00367563 0.00449053 -0.000113829 -0.0462473 0.595394 -0.802101 51 38 110
0.003598 -0.001977 -0.0014949 -0.0780837 0.13987 -0.987086 186 171 193
0.00351244 -0.00101069 -0.00134124 0.00266773 0.190631 -0.981658 66 51 120
0.00329251 -0.000361326 -0.00121384 0.0129191 0.112878 -0.993525 186 171 189
0.00339358 0.000394754 -0.00111093 0.00242473 0.12943 -0.991586 156 141 172
0.00303685 0.00139048 -0.000944447 0.0122554 0.197717 -0.980183 73 60 126
0.00245216 -0.00184457 -0.00148112 -0.00626628 0.152831 -0.988233 120 106 156
0.00239757 -0.000475885 -0.00125711 -0.00408642 0.0556937 -0.99844 190 174 193
0.00211766 0.00218139 -0.000811963 -0.00363615 0.187265 -0.982303 48 37 113
0.0016654 0.00165302 -0.000925511 -0.0151664 0.124631 -0.992088 175 161 192
0.00141516 0.0032246 -0.000639198 -0.0588915 0.211915 -0.975512 192 178 193
0.00126707 0.00463881 0.000461258 -0.0135567 0.71127 -0.702788 55 48 121
0.000948622 0.000821561 -0.00106082 -0.0221486 0.182754 -0.982909 177 162 187
0.000390479 0.00451475 0.000411135 -0.0824755 0.681172 -0.727463 52 39 117
0.000248755 0.000946803 -0.00104555 0.0675906 0.149434 -0.986458 127 127 171
0.000255148 0.00189422 -0.00089888 0.0191003 0.0783644 -0.996742 181 170 190
0.000182343 -0.0028259 -0.00145263 -0.0325625 -0.145177 -0.98887 76 61 120
-0.000201058 0.0048001 0.000470078 -0.111092 0.731977 -0.672212 43 42 125
-5.38488e-06 0.000647027 -0.0010596 -0.00370266 0.11062 -0.993856 174 168 192
-0.000549661 -0.0036349 -0.001219 -0.0219807 -0.312206 -0.94976 180 167 186
-0.000432838 0.0029988 -0.000737452 0.14313 0.191169 -0.971065 190 178 193
-0.000475579 0.00171306 -0.00090996 0.00599458 0.145002 -0.989413 173 168 193
-0.0009627 -0.00367773 -0.00118667 0.00913857 -0.372859 -0.927843 175 161 181
-0.000825854 0.00217654 -0.000876193 0.269084 0.189543 -0.944282 169 162 185
-0.00141521 0.00446067 0.000239919 -0.0332175 0.73361 -0.678758 51 60 144
-0.00390379 0.00114961 -0.000960857 -0.00592847 0.200224 -0.979733 64 73 98
-0.00374726 0.00174977 -0.000839955 0.147669 0.201264 -0.968343 57 69 113
-0.00374403 0.00381788 -8.7979e-05 -0.0982429 0.586684 -0.803835 53 68 136
-0.00459583 0.00480915 0.000742526 0.0581352 0.794141 -0.604947 60 74 112
-0.00444088 0.00429301 0.000220065 -0.052437 0.641456 -0.765365 61 74 120
-0.0048983 -0.00320602 -0.00139411 0.069727 -0.130195 -0.989034 176 136 120
-0.00452815 0.00331575 -0.000198581 -0.0605017 0.614084 -0.786918 81 87 89
-0.00546454 0.00481314 0.000921788 -0.0921898 0.826406 -0.555477 58 73 118
-0.00521818 0.000768743 -0.00101424 -0.0553739 0.179378 -0.98222 51 66 131
-0.00528654 0.00364738 6.88516e-05 -0.0390409 0.614204 -0.788181 57 74 153
-0.00548186 0.00410491 0.000606795 -0.0958378 0.748399 -0.656289 52 70 141
-0.00575035 0.00397189 0.000423009 -0.0888452 0.745608 -0.660436 75 86 103
-0.00635974 0.00500223 0.00110676 -0.0769414 0.814603 -0.574894 99 103 69
-0.0068617 0.00282884 -0.000649208 0.115032 0.331737 -0.936332 49 68 156
-0.00883805 0.00200705 -0.000691013 -0.00171363 0.203785 -0.979014 55 66 106
-0.00937809 0.00248116 -0.000600295 -0.0306709 0.183484 -0.982544 66 78 107
-0.00998894 -0.00306946 -0.00130323 -0.015328 -0.127858 -0.991674 145 38 25
-0.00984133 -0.00150896 -0.00122731 -0.0166208 0.21951 -0.975468 165 86 59
-0.0111501 -0.000852296 -0.00105636 -0.0710998 0.136802 -0.988043 147 60 39
-0.0118966 0.00543226 0.00275338 0.0108722 0.985517 -0.169228 32 51 152
-0.011519 0.00455639 0.000857869 0.177125 0.696988 -0.694863 40 60 146
-0.0117134 -0.000384561 -0.000983627 -0.0595773 0.0693572 -0.995811 162 128 111
-0.0126782 0.00528744 0.00208759 -0.102422 0.953444 -0.283645 32 51 149
-0.0122359 0.00146361 -0.000603557 -0.0756838 0.181791 -0.98042 49 60 142
-0.0129724 0.000463171 -0.000738134 -0.0905741 0.155732 -0.983638 149 107 54
-0.0149639 -0.00238959 -0.000909015 0.0656995 0.0456038 -0.996797 111 42 51
-0.0143172 0.000674665 -0.00084383 0.491718 0.387747 -0.779657 139 128 157
0.0112159 0.00411006 -0.000141356 -0.206867 0.320972 -0.924221 61 86 203
0.0109071 -0.000113285 -0.000375032 -0.00612206 0.191792 -0.981416 65 87 197
0.0109373 0.00213511 0.000207105 0.0214738 0.158458 -0.987133 61 85 198
0.00953449 -6.30325e-05 -0.000661348 -0.0324645 0.572981 -0.818926 144 154 189
0.00753304 0.00105824 -0.000738247 0.214502 0.0583428 -0.974979 48 67 160
0.00724975 0.00288388 -0.000574587 0.0176851 0.154317 -0.987862 199 182 190
0.00721208 -0.00162022 -0.00135996 -0.266143 0.197456 -0.943493 196 180 196
0.00674576 -0.000268747 -0.00108865 0.123669 0.263979 -0.956568 182 167 193
0.0067764 0.00156338 -0.00076751 0.0886173 0.220394 -0.971377 199 122 125
0.00669457 -0.00100675 -0.00120185 0.144864 0.149794 -0.978048 65 52 124
0.00654626 0.000373193 -0.00101345 0.0852736 0.116055 -0.989576 62 47 119
0.0062302 0.0051701 0.000175476 -0.0844194 0.74408 -0.662735 171 29 29
0.00617573 0.00465221 -0.000178067 -0.0811182 0.738057 -0.669844 184 110 113
0.00630249 -0.00272176 -0.00140911 0.110287 0.0136391 -0.993806 57 44 113
0.00589536 -0.00174472 -0.00140095 0.0125929 0.0545732 -0.99843 193 178 193
0.00603094 -0.000810021 -0.00126045 0.0113709 0.186325 -0.982423 51 38 119
0.00579584 0.00174861 -0.000829971 0.113986 0.149703 -0.982139 174 36 36
0.0055939 0.00458824 -0.000292892 0.102883 0.529814 -0.84185 171 79 60
0.00495818 -0.0012814 -0.00136048 0.0719054 0.104675 -0.991904 55 43 117
0.00474502 -0.0025224 -0.00144943 0.017395 -0.0420482 -0.998965 49 37 110
0.00422758 -0.00267219 -0.00146147 0.0193049 -0.0629153 -0.997832 50 38 108
0.00419234 0.00510202 0.00034338 0.0943575 0.858054 -0.504817 183 170 183
0.00408983 -0.00079132 -0.00128728 0.00506189 0.203704 -0.97902 48 35 115
0.00407062 0.00300888 -0.000673674 0.0887994 0.150405 -0.984629 109 96 146
0.00383312 0.00361155 -0.000470961 -0.134214 0.255452 -0.957461 50 38 118
0.00378751 -0.00170363 -0.00147916 -0.021446 0.185992 -0.982317 191 175 193
0.00363222 0.00247462 -0.000785423 0.0173574 0.131491 -0.991166 73 60 125
0.00324032 0.0047878 0.000208917 0.0244441 0.717291 -0.696345 59 47 117
0.0033814 0.00223378 -0.000789255 0.0375725 0.165434 -0.985505 100 87 143
0.00342728 0.00315956 -0.000651889 -0.00953635 0.161469 -0.986832 191 176 196
0.00312131 -0.00262068 -0.00144841 -0.0350925 -0.109471 -0.99337 49 37 111
0.00261915 0.00272528 -0.000738272 0.0201431 0.198021 -0.97999 169 155 189
0.00256807 -0.00226017 -0.00146381 0.0540225 -0.00499557 -0.998527 153 139 171
0.00246311 0.00210742 -0.000816388 0.0208056 0.178736 -0.983677 53 40 114
0.00234527 -0.00140387 -0.00141448 0.0199931 0.175 -0.984365 50 38 113
0.0018133 -0.00266783 -0.00147088 0.041954 -0.198958 -0.979109 66 53 119
0.00138944 0.00413501 -2.38477e-05 -0.0981389 0.470735 -0.876799 189 176 190
0.00137642 -0.00220557 -0.00148833 0.0375615 -0.0380688 -0.998569 189 173 189
0.00124582 -0.000763307 -0.00130885 0.00745282 0.249578 -0.968325 186 171 192
0.00123789 0.000179663 -0.00115759 0.00362934 0.109298 -0.994002 62 49 116
0.000953625 0.00271984 -0.000761856 -0.00514248 0.169944 -0.98544 117 102 149
0.000770882 -0.00126612 -0.00143027 0.0375502 0.17966 -0.983012 50 38 114
0.000392628 0.00451764 0.000411278 -0.0807744 0.682598 -0.726316 52 39 117
0.000400656 0.00347387 -0.000577181 -0.0429896 0.302933 -0.952041 182 174 195
0.000241711 0.00404684 -8.07204e-05 -0.208471 0.51763 -0.829819 193 178 192
0.000208545 -0.00214152 -0.00148108 -0.049507 0.0539511 -0.997316 189 173 187
0.000112248 0.00221447 -0.000848373 -0.00266173 0.058154 -0.998304 157 157 187
7.48255e-06 0.0016317 -0.000931348 -0.0117125 0.124499 -0.992151 164 162 190
-0.000121107 0.00420135 0.000129705 -0.0562402 0.531622 -0.845113 187 175 192
-0.000243767 -0.000475684 -0.00126604 0.00856932 0.120675 -0.992655 185 172 190
-0.000495641 -0.000744775 -0.00129819 0.0267421 0.172067 -0.984722 173 166 190
-0.000729367 -0.00102206 -0.00135356 -0.0593618 0.108493 -0.992323 163 160 188
-0.000693723 -0.000180436 -0.00118573 -0.164382 0.0469837 -0.985277 136 141 181
-0.00137775 -0.00214059 -0.00150985 0.0843995 0.0537625 -0.99498 157 156 186
-0.00373605 -0.00356002 -0.00123066 0.0206957 -0.293127 -0.955849 120 105 122
-0.00442359 -0.00255901 -0.00142938 0.0585072 -0.0852646 -0.994639 49 60 136
-0.00470167 0.00522028 0.00133524 0.0280129 0.859181 -0.510904 70 78 88
-0.00457474 0.000957406 -0.000968864 -0.0393021 0.177521 -0.983332 130 122 44
-0.00464944 0.00386731 1.09307e-05 -0.0437584 0.606895 -0.793576 122 118 44
-0.00510386 0.00548992 0.00175378 -0.148396 0.766296 -0.625115 52 71 158
-0.00568439 0.00551979 0.00242082 0.358406 0.929433 -0.0877507 48 70 161
-0.00505487 -0.00167768 -0.00140348 0.0314306 0.184145 -0.982397 50 64 154
-0.00512096 -0.000723854 -0.00126895 0.0299486 0.123101 -0.991942 173 162 180
-0.0054425 0.00248527 -0.000691637 -0.0356901 0.260762 -0.964743 52 69 146
-0.00590312 -0.00011135 -0.00114833 -0.00839229 0.227027 -0.973852 51 67 158
-0.00632759 0.00575577 0.00215665 0.343388 0.938198 -0.0432223 61 76 126
-0.00591121 -0.00166503 -0.00141729 -0.0197578 0.212631 -0.976933 182 145 137
-0.00599118 0.000893496 -0.000945891 0.0140363 0.196865 -0.98033 117 111 45
-0.00595283 0.00191657 -0.000788021 0.0518691 0.204988 -0.97739 108 105 48
-0.00625119 0.00447094 0.000504056 -0.0138942 0.673317 -0.739224 103 103 50
-0.00620744 0.00295218 -0.000550389 -0.00223928 0.351414 -0.936218 116 110 31
-0.00664437 -0.00138017 -0.00132468 -0.022718 0.206121 -0.978263 183 138 123
-0.00663744 0.00346683 -0.000457991 0.150755 0.613205 -0.775405 89 95 82
-0.00741254 2.29187e-05 -0.0010845 -0.0387278 0.157767 -0.986717 42 62 164
-0.00736238 0.00218136 -0.000745655 -0.11993 0.103134 -0.987411 42 61 137
-0.00866595 -0.00373203 -0.00113499 0.0509846 -0.285088 -0.957145 162 38 23
-0.00829121 0.00156028 -0.000793308 0.00528516 0.193993 -0.980989 128 123 59
-0.00854351 0.000251552 -0.00104343 -0.00106231 0.181632 -0.983366 161 151 170
-0.00871734 0.00167068 -0.000767381 0.0200418 0.204419 -0.978679 111 109 61
-0.00881758 0.00270388 -0.000549333 -0.0389445 0.268048 -0.962618 83 87 55
-0.00969677 -0.00426285 -0.00104851 0.0436354 -0.379565 -0.924135 168 132 68
-0.0103221 0.00128728 -0.000713236 -0.0812615 0.183173 -0.979717 40 59 153
-0.0116523 0.00516069 0.00166448 0.0826928 0.955829 -0.282051 79 86 70
-0.0114974 0.00123188 -0.000542336 -0.0354333 0.208257 -0.977431 147 135 140
-0.0133899 0.000547955 -0.000702334 -0.110841 0.201527 -0.973191 149 121 130
-0.0142497 -0.00184092 -0.000681416 -0.148003 0.402922 -0.903189 155 107 58
-0.0149973 -0.00474646 -0.000717947 0.657298 -0.316023 -0.684169 164 154 178
-0.0145297 -0.00339093 -0.0010285 0.0877303 0.169418 -0.981632 134 22 25
0.011661 0.00269553 0.000466663 0.777843 0.026111 -0.627915 233 225 242
0.0106023 0.00141654 -6.73157e-05 0.536729 -0.0928728 -0.838628 52 78 191
0.00944887 0.00116015 -0.00053943 -0.345104 -0.0856557 -0.934648 172 172 196
0.00925782 -0.00188963 -0.00114437 0.13093 0.111483 -0.985104 199 185 202
0.0075893 -0.000392952 -0.00147301 -0.544432 0.0127285 -0.838709 45 69 180
0.00709417 -0.00225035 -0.00130166 -0.0212648 0.0666262 -0.997551 195 180 192
0.00657283 0.00499019 -2.21341e-05 0.00032927 0.752357 -0.658755 177 67 70
0.00629469 0.00407537 -0.00044971 -0.0384396 0.35299 -0.934837 187 111 119
0.00636317 -0.000897643 -0.00123784 0.0342809 0.192061 -0.980784 49 37 120
0.00577792 0.00500184 5.39984e-05 -0.192103 0.767991 -0.610973 185 103 108
0.00433664 0.00233416 -0.000694383 0.136659 0.210369 -0.968023 193 178 191
0.00414681 -0.00173929 -0.00148033 0.00180844 0.0246341 -0.999695 192 177 192
0.00371984 0.00124649 -0.000963445 0.0233936 0.169611 -0.985234 48 36 116
0.00310077 0.00571176 0.0019322 0.210673 0.799293 -0.562804 198 186 196
0.00303462 -0.000649518 -0.00122381 0.00344278 0.2723 -0.962206 192 177 192
0.00273921 0.00448748 -0.000193712 -0.114191 0.439445 -0.890981 178 165 183
0.00227954 0.00368236 -0.000453342 -0.00336576 0.42382 -0.905741 50 38 116
0.0020391 0.00537021 0.00115962 0.0676455 0.854516 -0.515002 53 54 129
0.00200553 0.00251316 -0.000785648 -0.00497288 0.169461 -0.985524 67 55 129
0.000637371 0.00467788 0.000569754 -0.168556 0.884028 -0.435985 48 48 129
-0.000122179 0.00181897 -0.00088766 -0.100944 -0.014209 -0.994791 143 148 186
-0.000234827 0.000383337 -0.00110454 0.0179486 0.121327 -0.99245 164 161 189
-0.000592267 -0.000418814 -0.00126856 -0.040085 0.193724 -0.980237 142 147 184
-0.00169345 0.00515458 0.00114012 -0.292669 0.921337 -0.255897 194 182 193
-0.00308323 -0.00207625 -0.00152571 -0.253014 -0.0656518 -0.965233 186 172 188
-0.00432318 0.00125851 -0.000942827 0.00944256 0.217542 -0.976005 112 106 40
-0.00580726 0.00419398 0.000696983 -0.07474 0.790629 -0.607716 85 91 74
-0.0144904 -0.00448996 -0.000985507 0.265343 -0.250127 -0.931145 159 149 172
-0.0145015 0.00218199 -0.000283711 -0.332605 -0.156274 -0.930028 32 35 111
0.00940822 0.000787739 -0.000531548 0.19861 0.0298667 -0.979623 168 170 194
0.00927802 -0.0037368 -0.000855563 -0.0668168 -0.141164 -0.987729 44 66 178
0.00824531 -0.00098332 -0.00113119 0.178199 0.0844173 -0.980366 47 69 178
0.00755778 0.00312308 -0.000530388 0.0572893 0.0966403 -0.99367 197 182 194
0.00609519 0.00485245 0.000179692 -0.0461527 0.709154 -0.703542 188 77 83
0.00513425 0.00332839 -0.000512768 -0.115502 0.0697917 -0.990853 195 181 192
0.00508295 0.00381619 -0.000485434 -0.0468013 0.466274 -0.883401 191 177 189
0.00432551 -0.000523858 -0.00122355 0.0229771 0.11705 -0.99286 73 60 125
0.00303855 0.00230669 -0.00078165 0.0163356 0.169445 -0.985404 52 39 114
0.0020267 -0.00235908 -0.00150164 0.00251965 -0.000385688 -0.999997 72 58 120
0.00166319 0.000734005 -0.00108694 0.0198188 0.172719 -0.984772 124 112 157
0.00128889 0.00355221 -0.000547036 0.0234654 0.327556 -0.94454 187 174 191
6.42439e-05 0.00491627 0.000615984 0.136877 0.756918 -0.639014 54 44 118
0.000135537 0.000336333 -0.00113362 -0.0372658 0.152662 -0.987576 164 149 179
-0.000542348 0.00364322 -0.000547352 -0.00219424 0.731238 -0.68212 186 174 185
-0.0010379 -0.00297077 -0.00143406 0.0596723 -0.186024 -0.980731 177 167 188
-0.0045306 0.00239464 -0.000726513 0.00705334 0.21139 -0.977376 96 98 86
-0.0060296 -0.000766193 -0.00126574 -0.0509407 0.150597 -0.987283 118 120 172
-0.00582666 -0.00388801 -0.00114068 -0.0964587 -0.297858 -0.949724 170 107 21
-0.0064489 0.00392317 -4.30843e-05 0.0127783 0.569897 -0.821617 85 90 78
-0.00983091 0.000844629 -0.00081011 -0.0744507 0.143838 -0.986797 52 66 135
-0.0115885 0.000487678 -0.000720193 -0.0977138 0.235852 -0.966864 158 121 33
0.00720289 -0.00351632 -0.0011435 -0.0676526 -0.358617 -0.93103 185 172 186
0.00659474 0.00585874 0.00107993 -0.139373 0.785497 -0.602968 46 67 166
0.00468143 0.00223526 -0.000744263 0.00367586 0.33688 -0.941541 196 181 193
0.00401409 0.00585222 0.00170018 0.0572977 0.792515 -0.607154 166 154 172
0.00242624 -0.00300033 -0.00140167 -0.0112762 -0.17205 -0.985024 145 132 167
0.00246723 0.00119759 -0.000993157 0.00388714 0.172632 -0.984979 49 37 113
0.000589625 0.00513269 0.000790767 0.0688536 0.90645 -0.416664 49 65 157
-0.000231064 0.00354839 -0.000616576 -0.0254816 0.646808 -0.762227 169 164 186
-0.00442305 -0.000394837 -0.00118764 0.0460581 0.137849 -0.989382 52 69 162
-0.00814704 -0.00229373 -0.00134402 0.157167 0.0246447 -0.987264 170 133 48
-0.0129795 -0.00401287 -0.00106855 -0.0692008 -0.0409043 -0.996764 162 122 58
0.00819739 0.00390764 -0.000391817 -0.0713034 -0.271478 -0.959799 204 191 205
0.0045817 -0.00345861 -0.00132435 -0.0180305 -0.233291 -0.97224 176 164 186
0.00450533 -0.00177539 -0.00148195 0.0313853 0.155608 -0.98732 191 175 192
-0.00122917 -0.00154509 -0.00145473 0.0265565 0.158211 -0.987048 159 158 189
-0.00753797 -0.000633854 -0.00119962 -0.0108515 0.168546 -0.985634 118 102 139
