ply
format ascii 1.0
element vertex 59
property float x
property float y
property float z
property float nx
property float ny
property float nz
property uchar diffuse_red
property uchar diffuse_green
property uchar diffuse_blue
end_header
0.011893 -0.00551929 0.00558987 0.674009 -0.0404716 -0.737613 76 106 226
0.0110851 -0.00592907 0.00308241 0.0332719 -0.956318 -0.290426 179 163 199
0.0075146 -0.00630396 0.0039661 0.199949 -0.880656 -0.429494 51 70 167
0.00352612 -0.00396842 -0.00104557 -0.105865 -0.39993 -0.910411 78 81 157
0.00299138 -0.00637639 0.000768859 0.636375 -0.770705 0.0322564 43 59 157
0.00249168 -0.00379266 -0.00126045 0.0545082 -0.367611 -0.928381 166 155 180
0.00204128 -0.0030519 -0.00139805 0.0352309 -0.198535 -0.979461 56 43 110
0.00191436 -0.00401803 -0.00101932 0.005744 -0.419659 -0.907663 52 41 109
0.00128262 -0.00376236 -0.00114767 0.0242278 -0.425073 -0.904834 178 165 187
-0.000498597 -0.00429401 -0.000919016 -0.000554516 -0.511722 -0.859152 57 46 110
-0.00046245 -0.00488332 -0.000526141 0.00697575 -0.59977 -0.800142 173 163 186
-0.00113336 -0.00401877 -0.00104785 -0.00679425 -0.449321 -0.893344 179 167 186
-0.0020149 -0.00409542 -0.000996123 -0.00150682 -0.410064 -0.912056 46 53 131
-0.00302021 -0.00453528 -0.000838093 -0.0187744 -0.526532 -0.849948 90 70 50
-0.00339581 -0.00690298 0.00226592 0.413556 -0.554326 -0.722284 43 61 166
-0.00364086 -0.00487542 -0.000639169 0.00861464 -0.553418 -0.832859 132 113 98
-0.00473031 -0.00656685 0.00201112 -0.0629966 -0.960867 -0.269751 65 70 117
-0.00472182 -0.00571221 0.000275486 -0.120606 -0.802321 -0.584583 57 64 42
-0.00601449 -0.00282377 -0.00139438 -0.0284499 -0.165227 -0.985846 169 104 36
-0.00645936 -0.00618414 0.000996636 0.0148006 -0.958205 -0.285699 161 105 30
-0.0081925 -0.00568993 2.71939e-05 0.0720716 -0.634955 -0.769179 153 85 33
0.0120931 -0.00607089 0.00666578 -0.185491 -0.955936 -0.22755 62 90 208
0.0121596 -0.00548478 0.00398326 0.939983 -0.042327 -0.338586 72 100 224
0.0103895 -0.00587746 0.00452908 0.397129 -0.702133 -0.591014 199 187 208
-9.37177e-05 -0.00425888 -0.000938731 0.000727325 -0.504069 -0.863663 52 41 108
-0.00137966 -0.0036869 -0.00119563 -0.0345127 -0.405158 -0.913595 180 167 184
-0.00221129 -0.00379721 -0.00115064 -0.0305888 -0.354698 -0.93448 52 56 129
-0.0024792 -0.00601154 0.000668108 0.120278 -0.82171 -0.557068 45 64 168
-0.00373605 -0.00356002 -0.00123066 0.0206957 -0.293127 -0.955849 120 105 122
-0.00399328 -0.00258872 -0.0014433 -0.0253589 -0.188864 -0.981676 43 51 131
-0.00436662 -0.00507501 -0.000296312 -0.127453 -0.700829 -0.701852 64 69 36
-0.00866595 -0.00373203 -0.00113499 0.0509846 -0.285088 -0.957145 162 38 23
-0.0100181 -0.00389252 -0.00114008 0.00547842 -0.390821 -0.92045 168 129 91
-0.0100873 -0.00627362 0.000993728 0.0607427 -0.910818 -0.408316 165 153 173
-0.0137509 -0.00420287 -0.000974745 0.0948882 -0.261616 -0.960497 150 115 110
0.00762999 0.000683774 -0.000582354 0.447968 0.0209421 -0.893805 46 69 177
0.00497704 -0.00423965 -0.00101356 -0.0958563 -0.443143 -0.891311 41 52 141
0.00395543 -0.00572463 0.000324331 -0.0432407 -0.761012 -0.647295 191 181 195
0.00356808 -0.00455162 -0.000681827 -0.00655258 -0.759594 -0.650364 44 64 170
-0.00144642 -0.00574736 0.000376518 0.0181817 -0.934005 -0.356796 43 57 152
-0.00284496 -0.00419056 -0.000959648 -0.00144013 -0.510273 -0.860011 57 62 120
-0.00325261 -0.00648688 0.00163771 0.11275 -0.903033 -0.41451 177 172 194
-0.00543119 -0.00621231 0.00155236 -0.00366419 -0.955103 -0.296253 62 64 39
-0.0118888 -0.00703183 0.00320616 0.0863233 -0.904647 -0.417327 42 59 162
-0.0125445 -0.00669126 0.00204918 0.365207 -0.921722 -0.130584 153 149 177
-0.0144904 -0.00448996 -0.000985507 0.265343 -0.250127 -0.931145 159 149 172
0.00891187 0.00297747 -0.000352017 0.260654 -0.00303763 -0.965428 137 138 193
0.00816222 -0.00626524 0.00370081 -0.191934 -0.864713 -0.464148 62 81 190
0.000888046 -0.00384539 -0.00113246 0.0207406 -0.422128 -0.906299 172 159 184
-0.00144287 -0.00300511 -0.00141495 -0.0216865 -0.181714 -0.983112 181 169 187
-0.00151225 -0.00594766 0.00058377 0.0994492 -0.850232 -0.516929 45 62 162
-0.00350586 -0.00387408 -0.00111001 -0.0115055 -0.404983 -0.914251 112 98 95
0.00635092 -0.00535517 0.000344793 -0.260442 -0.602182 -0.754683 52 72 180
-0.00235954 -0.00479036 -0.000667191 0.014873 -0.57278 -0.819574 129 124 154
0.00696708 -0.00507975 0.00148644 -0.155775 -0.911566 -0.380503 49 71 181
-0.00295692 -0.00511604 -0.000424968 0.0357876 -0.64563 -0.762811 142 124 121
-0.0128233 -0.00539971 -0.000417642 0.0130879 -0.614199 -0.789042 165 157 180
0.00569328 -0.00528733 0.00115827 -0.240734 -0.809496 -0.535502 44 66 176
0.00798606 -0.0057843 0.00293945 -0.244248 -0.795848 -0.554049 41 60 159
