ply
format ascii 1.0
element vertex 202
property float x
property float y
property float z
property float nx
property float ny
property float nz
property uchar diffuse_red
property uchar diffuse_green
property uchar diffuse_blue
end_header
0.0110547 -0.00575985 0.00824216 0.367532 -0.743297 -0.558954 59 83 196
0.0115905 0.00399431 0.00119651 0.677314 0.281625 -0.679656 170 175 239
0.0109071 -0.000113285 -0.000375032 -0.00612206 0.191792 -0.981416 65 87 197
0.00863173 -0.0066151 0.00392032 0.682528 -0.723219 -0.105401 67 81 184
0.00733263 -0.0060149 0.00340245 -0.0137117 -0.873202 -0.487165 46 65 164
0.00848446 -0.00213304 -0.0014308 0.331746 0.319792 -0.887512 42 50 144
0.0064711 0.0033589 -0.000559029 -0.0545396 0.115153 -0.991849 198 110 114
0.00629469 0.00407537 -0.00044971 -0.0384396 0.35299 -0.934837 187 111 119
0.00674576 -0.000268747 -0.00108865 0.123669 0.263979 -0.956568 182 167 193
0.00665021 5.55546e-05 -0.00104158 0.131234 0.15407 -0.979306 82 68 128
0.00611377 0.0026829 -0.000653013 0.0898292 0.146646 -0.985102 188 108 109
0.00609729 0.000746296 -0.00098359 0.0768788 0.15853 -0.984356 195 175 182
0.00535222 0.00403272 -0.00046326 0.0180904 0.489911 -0.871584 192 175 181
0.00568695 -0.00201194 -0.00143881 0.0464022 0.113802 -0.992419 181 166 191
0.00495818 -0.0012814 -0.00136048 0.0719054 0.104675 -0.991904 55 43 117
0.00407062 0.00300888 -0.000673674 0.0887994 0.150405 -0.984629 109 96 146
0.00384517 0.00276088 -0.000725164 0.00628978 0.148445 -0.9889 68 56 122
0.00383312 0.00361155 -0.000470961 -0.134214 0.255452 -0.957461 50 38 118
0.00449435 -0.00501908 -0.000209134 -0.0121854 -0.477316 -0.878647 47 62 156
0.0039562 0.0015071 -0.000925188 0.000534452 0.173994 -0.984746 76 63 131
0.00363222 0.00247462 -0.000785423 0.0173574 0.131491 -0.991166 73 60 125
0.00383787 0.000920051 -0.00101829 0.00305496 0.172299 -0.98504 78 65 128
0.00327458 0.00165354 -0.0009065 0.023763 0.208753 -0.97768 171 157 188
0.00374348 -0.00075366 -0.00129038 0.0239504 0.180292 -0.983321 78 63 127
0.00329251 -0.000361326 -0.00121384 0.0129191 0.112878 -0.993525 186 171 189
0.00339677 -0.000682662 -0.00126988 0.0100761 0.197031 -0.980346 183 166 191
0.003598 -0.001977 -0.0014949 -0.0780837 0.13987 -0.987086 186 171 193
0.00276387 -0.00598011 0.000749688 -0.139398 -0.818972 -0.556645 44 55 148
0.00349848 -0.00482528 -0.000368471 -0.00131084 -0.672284 -0.740293 44 61 162
0.00288781 0.00014723 -0.00115455 0.050386 0.0723616 -0.996105 77 63 126
0.00245216 -0.00184457 -0.00148112 -0.00626628 0.152831 -0.988233 120 106 156
0.00234527 -0.00140387 -0.00141448 0.0199931 0.175 -0.984365 50 38 113
0.00253464 -0.00429587 -0.000871952 -0.000497609 -0.535783 -0.844355 47 36 109
0.000460587 0.00310495 -0.00069007 -0.0719305 0.28365 -0.956226 190 177 193
0.000948622 0.000821561 -0.00106082 -0.0221486 0.182754 -0.982909 177 162 187
0.00124582 -0.000763307 -0.00130885 0.00745282 0.249578 -0.968325 186 171 192
0.000248755 0.000946803 -0.00104555 0.0675906 0.149434 -0.986458 127 127 171
0.000137505 -0.00649354 0.00127794 0.182467 -0.610087 -0.771039 51 64 156
0.000356141 -0.00582504 0.000846195 0.118406 -0.457583 -0.881248 182 171 190
-0.000442956 0.000773525 -0.000963316 -0.0770979 0.126278 -0.988994 156 157 189
0.000276341 -0.00182685 -0.0014709 -0.0921831 0.0419232 -0.994859 187 172 189
-0.00046245 -0.00488332 -0.000526141 0.00697575 -0.59977 -0.800142 173 163 186
-0.00149834 0.00235686 -0.00116221 0.39539 0.393169 -0.830112 43 54 141
-0.000549661 -0.0036349 -0.001219 -0.0219807 -0.312206 -0.94976 180 167 186
-0.00164268 -0.000405644 -0.00113093 0.176181 -0.0742188 -0.981556 185 171 187
-0.00144287 -0.00300511 -0.00141495 -0.0216865 -0.181714 -0.983112 181 169 187
-0.00159575 -0.00340347 -0.00132855 0.0106267 -0.420011 -0.907457 179 167 184
-0.0024792 -0.00601154 0.000668108 0.120278 -0.82171 -0.557068 45 64 168
-0.00390379 0.00114961 -0.000960857 -0.00592847 0.200224 -0.979733 64 73 98
-0.00329274 -0.0035508 -0.00122722 0.0265234 -0.312109 -0.949676 53 59 129
-0.0045506 -6.42601e-05 -0.0011293 0.00786697 0.157757 -0.987447 48 66 161
-0.0054425 0.00248527 -0.000691637 -0.0356901 0.260762 -0.964743 52 69 146
-0.00436662 -0.00507501 -0.000296312 -0.127453 -0.700829 -0.701852 64 69 36
-0.00528222 9.45321e-05 -0.00110521 -0.0392943 0.131852 -0.990491 48 67 157
-0.00620744 0.00295218 -0.000550389 -0.00223928 0.351414 -0.936218 116 110 31
-0.0048983 -0.00320602 -0.00139411 0.069727 -0.130195 -0.989034 176 136 120
-0.00505487 -0.00167768 -0.00140348 0.0314306 0.184145 -0.982397 50 64 154
-0.00516976 -0.00248769 -0.00152994 0.0664058 -0.0161188 -0.997662 175 156 163
-0.00590312 -0.00011135 -0.00114833 -0.00839229 0.227027 -0.973852 51 67 158
-0.00623338 0.0016383 -0.00082616 -0.0156864 0.169027 -0.985487 126 117 32
-0.006396 0.000597761 -0.00101452 0.0111697 0.206081 -0.978471 105 103 55
-0.00642523 -0.000700396 -0.00125786 -0.0289728 0.180132 -0.983216 179 162 178
-0.00736238 0.00218136 -0.000745655 -0.11993 0.103134 -0.987411 42 61 137
-0.00664437 -0.00138017 -0.00132468 -0.022718 0.206121 -0.978263 183 138 123
-0.00765719 -0.000267242 -0.0011418 -0.0113784 0.145709 -0.989262 65 77 157
-0.00809726 0.00115324 -0.000814386 0.0473653 0.166147 -0.984963 44 63 150
-0.0081925 -0.00568993 2.71939e-05 0.0720716 -0.634955 -0.769179 153 85 33
-0.0100873 -0.00627362 0.000993728 0.0607427 -0.910818 -0.408316 165 153 173
-0.0101811 -0.000360796 -0.000992083 -0.0828249 0.1452 -0.985929 173 141 118
-0.0102407 -0.00143131 -0.00120019 0.0375066 0.26182 -0.964388 160 74 48
-0.00998894 -0.00306946 -0.00130323 -0.015328 -0.127858 -0.991674 145 38 25
-0.0131338 0.0026604 -0.000228455 0.0191726 0.290445 -0.9567 150 143 173
-0.0121445 -0.000347474 -0.000960014 -0.0131842 0.0739064 -0.997178 161 125 91
-0.0133575 0.00127676 -0.000616374 -0.162453 0.0603942 -0.984866 140 131 163
-0.0115681 -0.00521893 -0.000610419 0.212541 -0.538065 -0.815667 158 140 125
-0.0120013 -0.00506473 -0.00072738 0.132501 -0.468063 -0.873705 158 145 147
-0.0144868 0.00165038 -0.000148503 -0.0955508 -0.0675816 -0.993128 34 32 93
-0.0141182 -0.00417429 -0.00112973 0.142763 -0.21752 -0.965559 152 141 164
-0.0152599 -0.00505184 -0.000736373 0.476327 -0.478324 -0.737779 167 159 187
0.0106023 0.00141654 -6.73157e-05 0.536729 -0.0928728 -0.838628 52 78 191
0.00946252 0.000129473 -0.000688605 0.452059 0.368416 -0.81235 147 161 194
0.00700733 0.00390329 -0.000437191 -0.11025 0.459192 -0.881469 198 177 160
0.00753304 0.00105824 -0.000738247 0.214502 0.0583428 -0.974979 48 67 160
0.00761016 -0.000831867 -0.00133188 -0.337791 -0.125277 -0.932847 52 69 171
0.00633774 0.00372756 -0.000470093 -0.163754 0.166489 -0.972351 197 113 117
0.00740255 -0.00204388 -0.00149595 -0.337972 0.163534 -0.926839 196 181 195
0.00634301 0.00291958 -0.000590445 -0.0713867 0.0653341 -0.995307 199 126 130
0.00621939 0.00325102 -0.000559556 0.0954249 0.211552 -0.972698 197 117 123
0.00654626 0.000373193 -0.00101345 0.0852736 0.116055 -0.989576 62 47 119
0.00636317 -0.000897643 -0.00123784 0.0342809 0.192061 -0.980784 49 37 120
0.00580575 0.00169738 -0.000817335 0.0594186 0.189906 -0.980002 175 33 35
0.00579584 0.00174861 -0.000829971 0.113986 0.149703 -0.982139 174 36 36
0.00543572 0.00281746 -0.000699671 0.0308683 0.114308 -0.992965 197 181 189
0.00630249 -0.00272176 -0.00140911 0.110287 0.0136391 -0.993806 57 44 113
0.00589536 -0.00174472 -0.00140095 0.0125929 0.0545732 -0.99843 193 178 193
0.00508081 0.000981145 -0.00100586 0.00947221 0.152795 -0.988212 194 179 189
0.0042883 0.00236709 -0.000731628 0.0756582 0.107528 -0.991319 191 177 191
0.00396046 0.0033168 -0.000614425 -0.0584668 0.226154 -0.972335 65 53 123
0.00443483 -0.000847053 -0.00130416 -0.0103899 0.226114 -0.974045 46 34 116
0.00414681 -0.00173929 -0.00148033 0.00180844 0.0246341 -0.999695 192 177 192
0.0033814 0.00223378 -0.000789255 0.0375725 0.165434 -0.985505 100 87 143
0.00308902 0.00322809 -0.000652324 0.0259662 0.135615 -0.990421 157 143 178
0.00349578 0.000993135 -0.00102539 0.0166368 0.154935 -0.987785 52 40 117
0.00261915 0.00272528 -0.000738272 0.0201431 0.198021 -0.97999 169 155 189
0.00248634 0.00211353 -0.000813565 0.0210098 0.176795 -0.984023 53 40 114
0.00312131 -0.00262068 -0.00144841 -0.0350925 -0.109471 -0.99337 49 37 111
0.00315381 -0.00400808 -0.00105306 0.0142198 -0.568288 -0.822707 48 39 115
0.002738 -0.000593528 -0.00126814 0.00818886 0.114481 -0.993392 189 174 191
0.00128889 0.00355221 -0.000547036 0.0234654 0.327556 -0.94454 187 174 191
0.00249168 -0.00379266 -0.00126045 0.0545082 -0.367611 -0.928381 166 155 180
0.00137642 -0.00220557 -0.00148833 0.0375615 -0.0380688 -0.998569 189 173 189
0.00128262 -0.00376236 -0.00114767 0.0242278 -0.425073 -0.904834 178 165 187
0.000770882 -0.00126612 -0.00143027 0.0375502 0.17966 -0.983012 50 38 114
7.48255e-06 0.0016317 -0.000931348 -0.0117125 0.124499 -0.992151 164 162 190
0.000208545 -0.00214152 -0.00148108 -0.049507 0.0539511 -0.997316 189 173 187
-0.000485996 -0.00570351 0.000375774 0.13163 -0.656072 -0.74313 150 142 176
-0.000498597 -0.00429401 -0.000919016 -0.000554516 -0.511722 -0.859152 57 46 110
-0.00107065 -0.00465542 -0.000705609 0.0157525 -0.56728 -0.823374 107 100 149
-0.00113336 -0.00401877 -0.00104785 -0.00679425 -0.449321 -0.893344 179 167 186
-0.00339581 -0.00690298 0.00226592 0.413556 -0.554326 -0.722284 43 61 166
-0.00221129 -0.00379721 -0.00115064 -0.0305888 -0.354698 -0.93448 52 56 129
-0.00455856 0.00198673 -0.000820964 -0.00811856 0.163997 -0.986428 125 119 47
-0.00457474 0.000957406 -0.000968864 -0.0393021 0.177521 -0.983332 130 122 44
-0.00627386 -0.00246754 -0.00143284 0.00387185 0.167801 -0.985814 173 104 35
-0.00570421 0.00220005 -0.000753158 -0.0270623 0.143488 -0.989282 74 80 93
-0.00442359 -0.00255901 -0.00142938 0.0585072 -0.0852646 -0.994639 49 60 136
-0.00569198 0.00116637 -0.000932351 -0.07027 0.199421 -0.977391 95 95 56
-0.00512096 -0.000723854 -0.00126895 0.0299486 0.123101 -0.991942 173 162 180
-0.00563654 -0.00572625 0.000392094 0.0871764 -0.828847 -0.552642 170 128 99
-0.00545611 -0.0054418 5.4831e-05 0.110181 -0.693023 -0.712445 171 128 91
-0.00677726 -0.00205123 -0.0014375 -0.0131601 0.165316 -0.986153 174 102 33
-0.00741254 2.29187e-05 -0.0010845 -0.0387278 0.157767 -0.986717 42 62 164
-0.00848929 0.00235398 -0.000633099 0.00669436 0.182545 -0.983175 126 121 49
-0.00854351 0.000251552 -0.00104343 -0.00106231 0.181632 -0.983366 161 151 170
-0.00912455 0.00175904 -0.000754808 0.0158599 0.185133 -0.982586 105 103 50
-0.00866595 -0.00373203 -0.00113499 0.0509846 -0.285088 -0.957145 162 38 23
-0.00863833 -0.00296967 -0.00132081 0.0229655 -0.101481 -0.994573 166 131 83
-0.0118971 0.00246385 -0.000373662 -0.110457 0.249264 -0.962116 41 57 135
-0.01108 -0.00595632 0.000296356 -0.00186735 -0.688722 -0.725023 149 46 37
-0.0119016 -5.92606e-06 -0.000922945 -0.0552169 0.140258 -0.988573 158 124 79
-0.0131196 -0.00466726 -0.000816227 0.0867049 -0.057677 -0.994563 156 81 41
-0.0140764 -0.00261357 -0.000894523 0.252409 0.146578 -0.956454 149 105 47
0.0113088 0.00374075 -0.000253102 -0.0897646 0.23396 -0.968093 75 99 211
0.0115708 -0.000986885 -9.94064e-05 0.1221 0.115212 -0.985808 179 179 225
0.00914751 0.00443888 2.6518e-05 0.0686433 0.0695847 -0.995212 198 185 202
0.00945421 0.000463762 -0.000595491 0.402706 0.250675 -0.880335 156 161 188
0.00925782 -0.00188963 -0.00114437 0.13093 0.111483 -0.985104 199 185 202
0.00822808 -0.00155946 -0.00142605 0.498292 -0.173661 -0.849439 44 59 161
0.00476436 0.00367607 -0.000605112 -0.1798 0.291086 -0.93965 196 181 192
0.00616167 -0.00365363 -0.00131138 -0.0161947 -0.424108 -0.905467 183 169 184
0.00465295 -0.00421524 -0.000971353 -0.122785 -0.440161 -0.889484 42 56 147
0.00177748 -0.0043593 -0.000894057 0.0187033 -0.422216 -0.906302 46 36 110
0.000172967 -0.00503901 -0.000383678 0.012229 -0.695129 -0.718781 176 165 183
-0.000824109 0.00286206 -0.000790866 0.187375 0.260904 -0.947005 182 171 187
-0.0020497 0.00322122 -0.000987548 0.171712 0.267848 -0.948036 45 60 154
-0.00144642 -0.00574736 0.000376518 0.0181817 -0.934005 -0.356796 43 57 152
-0.0032542 -0.00727154 0.00241458 0.535267 -0.339247 -0.773563 43 59 166
-0.0047479 -0.00184734 -0.00133551 0.264559 0.287036 -0.920662 53 68 158
-0.00675774 -0.0010069 -0.00126567 -0.0382375 0.168834 -0.984903 165 107 92
-0.00748796 0.000359658 -0.00101111 -0.0938439 0.361691 -0.927563 43 64 168
-0.00883805 0.00200705 -0.000691013 -0.00171363 0.203785 -0.979014 55 66 106
-0.0099189 0.0012048 -0.000748858 -0.0295999 0.170454 -0.984921 38 58 149
-0.0118888 -0.00703183 0.00320616 0.0863233 -0.904647 -0.417327 42 59 162
-0.011318 0.000819016 -0.000680742 -0.0798447 0.184008 -0.979677 155 121 44
-0.0108919 -0.00561336 4.33478e-06 -0.0163699 -0.65854 -0.752367 159 82 21
0.00893928 0.00395561 -0.000282163 0.256972 0.110949 -0.960029 200 186 200
0.00820188 -0.000668747 -0.00110454 -0.138531 -0.103978 -0.984885 44 69 181
0.00622786 0.00227313 -0.000733207 0.0225537 0.157231 -0.987305 198 130 135
0.00642757 0.000668496 -0.000969326 0.0115694 0.159805 -0.987081 172 154 180
0.00546446 -0.00229247 -0.00145068 -0.0119489 0.050877 -0.998633 90 76 135
0.00443258 -0.00449996 -0.000748643 -0.178286 -0.48941 -0.853635 44 62 159
0.00166319 0.000734005 -0.00108694 0.0198188 0.172719 -0.984772 124 112 157
-0.00284496 -0.00419056 -0.000959648 -0.00144013 -0.510273 -0.860011 57 62 120
-0.00900985 -0.000634325 -0.00108761 0.0112434 0.204466 -0.978809 169 133 59
-0.0130749 -0.00576238 -6.60168e-05 0.0988732 -0.786503 -0.60962 174 169 190
0.0109125 0.000766294 -0.000337748 0.549734 0.0424259 -0.834261 62 84 189
0.010215 -0.00382696 -0.0014796 0.175037 -0.606695 -0.775424 39 62 170
0.00810405 0.00417902 -0.000231107 0.105584 0.23004 -0.967437 199 184 197
0.00720289 -0.00351632 -0.0011435 -0.0676526 -0.358617 -0.93103 185 172 186
0.00490178 0.00158168 -0.000883787 0.0478509 0.0823636 -0.995453 180 165 184
0.00485601 0.00257655 -0.000695675 -0.0677235 0.00995178 -0.997654 193 178 190
0.00554151 -0.00172002 -0.00137203 0.0307684 0.190071 -0.981288 188 174 194
0.0025697 0.0017874 -0.000871064 0.0012212 0.253461 -0.967345 168 153 186
0.00258329 0.000866682 -0.00104693 0.0120981 0.179136 -0.98375 97 85 141
0.00210859 0.00310498 -0.000664317 -0.020019 0.17677 -0.984048 71 55 121
0.00189233 0.00191698 -0.000883144 0.013653 0.142424 -0.989712 122 108 155
0.000204096 0.0028319 -0.000754652 -0.0489273 0.171382 -0.983989 172 169 194
-0.0026247 0.00247747 -0.000677769 0.0841365 0.539589 -0.837715 46 67 171
-0.00314531 -0.00585788 0.000405768 0.0319689 -0.762708 -0.645953 117 110 113
-0.00478729 -0.000337332 -0.00119028 -0.0140413 0.150413 -0.988523 113 118 171
-0.0102009 0.00258704 -0.00052105 -0.189138 0.246459 -0.950519 41 61 139
-0.0125534 0.000415925 -0.00076656 -0.0666452 0.226058 -0.971831 155 117 36
0.00390167 -0.00585254 0.000648521 0.0680718 -0.882334 -0.465676 182 173 192
0.00226824 -0.00335317 -0.00131957 0.014314 -0.329202 -0.944151 142 128 164
0.0020267 -0.00235908 -0.00150164 0.00251965 -0.000385688 -0.999997 72 58 120
-0.00732085 -0.00162693 -0.00136324 -0.0400711 0.227729 -0.9729 181 138 82
-0.0126036 -0.00472639 -0.000851515 0.0290555 -0.389038 -0.920764 160 115 56
0.00304153 -0.00153366 -0.00143019 -0.00845383 0.136582 -0.990593 126 110 157
-0.00532285 0.00209235 -0.000762314 -0.0268413 0.186129 -0.982159 53 68 134
-0.00998873 -0.00551339 -0.000179998 0.0223537 -0.684783 -0.728404 164 124 19
-0.00791717 -0.00439634 -0.00091625 0.104367 -0.555425 -0.824991 157 82 31
-0.0102458 -0.00348926 -0.00124069 -0.00757896 -0.157 -0.987569 152 67 45
